# .PCD v0.7 - Point Cloud Data file format
VERSION 0.7
FIELDS x y z
SIZE 4 4 4
TYPE F F F
COUNT 1 1 1
WIDTH 1559
HEIGHT 1
VIEWPOINT 0 0 0 1 0 0 0
POINTS 1559
DATA ascii
14.612981 -13.647197 2.9716601
14.65854 -13.644487 2.9721096
14.706694 -13.651453 2.9765589
14.758649 -13.655162 2.9902687
14.799889 -13.66115 2.9961348
14.835158 -13.655625 3.0005822
14.970861 -13.677876 2.9583411
15.008358 -13.671824 2.966629
15.057805 -13.66994 2.9808862
15.110835 -13.68371 2.9942679
15.142467 -13.679136 3.0017302
11.705538 -13.392403 2.9869838
11.837025 -13.421257 2.9635518
11.863066 -13.419469 2.9876835
11.89877 -13.407586 2.9828219
12.56687 -13.467601 2.9833522
12.604203 -13.462014 2.9903722
14.578846 -13.585365 2.9590511
14.618935 -13.592315 2.9610655
14.659422 -13.594873 2.9680223
14.710176 -13.605025 2.9777651
14.758414 -13.605805 2.9890339
14.803698 -13.6116 2.9966667
14.845398 -13.613225 3.0014338
14.9653 -13.618179 2.9606605
15.008457 -13.62129 2.9694912
15.062666 -13.623559 2.9805591
15.11075 -13.628655 2.9937661
15.151072 -13.623296 3.0012422
11.661533 -13.36621 2.9680037
11.699555 -13.346179 2.9598763
11.763468 -13.383557 2.9742267
11.817264 -13.376959 2.9623878
11.872969 -13.370407 2.9744382
11.909815 -13.363414 2.9999039
12.100804 -13.393437 3.00424
12.175808 -13.375287 3.0050473
12.23309 -13.385267 2.9824395
14.524729 -13.519571 2.9550812
14.563438 -13.520657 2.9664192
14.620783 -13.535181 2.970118
14.667794 -13.550944 2.9672496
14.716007 -13.55474 2.9762683
14.762251 -13.552991 2.9867988
14.807001 -13.552606 2.9907107
14.85845 -13.547716 2.9883173
14.890069 -13.53813 2.9928918
14.981154 -13.563434 2.957494
15.013171 -13.57513 2.9693942
15.062773 -13.572401 2.9834344
15.11434 -13.576439 2.9993665
11.645468 -13.312269 2.9568882
11.675072 -13.317169 2.9758713
11.707854 -13.320578 2.9817343
11.777556 -13.315365 2.9797885
11.827096 -13.326303 2.9716477
11.873001 -13.322873 2.9750807
11.905814 -13.325489 2.9709156
12.001948 -13.335032 3.000556
12.077821 -13.325502 2.9700692
12.111258 -13.325843 2.9881656
12.174482 -13.322596 2.995671
12.207326 -13.329475 2.9918261
12.269788 -13.365708 2.9792969
12.303061 -13.351474 2.9781246
12.367867 -13.334268 2.9680293
12.525938 -13.373293 2.9916837
12.552859 -13.347424 3.0020261
12.919376 -13.374017 3.0021901
14.521734 -13.476014 2.9644263
14.570073 -13.475438 2.97978
14.620206 -13.479002 2.9736533
14.671627 -13.496867 2.9654429
14.719074 -13.498015 2.9744437
14.765334 -13.50511 2.9867067
14.815204 -13.510413 2.9993024
14.911966 -13.533324 3.0002458
14.966318 -13.528255 2.9586251
15.015237 -13.533208 2.9678454
15.064576 -13.526754 2.9848135
15.116759 -13.533311 2.9979577
15.142445 -13.531213 3.0006237
11.631895 -13.274173 2.9840381
11.663018 -13.277532 3.0009723
11.735089 -13.264654 2.9743927
11.76368 -13.274835 2.9774983
11.818479 -13.273724 2.9817786
11.862374 -13.285937 2.9641576
11.923543 -13.290481 2.9720938
11.969805 -13.290019 2.9921856
12.022252 -13.287584 2.9844015
12.066143 -13.278543 2.9942617
12.123144 -13.286026 2.9736056
12.174516 -13.285769 2.9885247
12.223125 -13.314598 2.9980078
12.274909 -13.310905 2.9808862
12.323473 -13.296214 2.9738321
12.372433 -13.305643 2.9812686
12.412889 -13.305524 2.9935453
12.468422 -13.295932 2.9812322
12.51819 -13.311241 2.9797432
12.56912 -13.322454 2.984519
12.621942 -13.329013 2.9798205
12.671464 -13.323949 2.9885795
12.713861 -13.332528 2.99652
12.777613 -13.327742 2.9930458
12.819175 -13.324911 2.9985051
12.877368 -13.333126 2.973531
14.5713 -13.441416 2.9631212
14.625143 -13.442494 2.9651084
14.671824 -13.444124 2.9703588
14.717506 -13.448211 2.9761801
14.768092 -13.458835 2.9900033
14.814675 -13.458219 2.9885736
14.864412 -13.457066 2.9925461
14.976508 -13.491387 2.956562
15.018992 -13.487337 2.9682596
11.693496 -13.235807 2.9894559
11.714174 -13.234138 3.0002689
11.919578 -13.244972 2.9758649
11.98882 -13.243553 2.9752004
12.017461 -13.225688 2.9833438
12.071444 -13.23549 2.9714029
12.123553 -13.258537 2.9810317
12.175287 -13.260596 2.9712551
12.235521 -13.260635 2.9727311
12.270075 -13.266347 2.983686
12.334069 -13.261079 2.9904497
12.37942 -13.251458 2.9893184
12.424913 -13.254906 2.9817204
12.479399 -13.253882 2.9847605
12.528203 -13.263394 2.9810877
12.567333 -13.256149 2.9763577
12.623409 -13.268807 2.9680488
12.679614 -13.262525 2.9780121
12.727627 -13.27108 2.970551
12.773417 -13.269225 2.9739685
12.826518 -13.266997 2.9784088
12.869256 -13.265028 2.9837554
14.578796 -13.385108 2.9611044
14.632646 -13.393355 2.9628735
14.67796 -13.398828 2.9659305
14.722386 -13.40365 2.9755683
14.771175 -13.401017 2.9890113
14.812834 -13.40148 2.9991767
14.913358 -13.433179 2.9971387
11.987722 -13.18611 2.9637516
12.019987 -13.189633 2.9806342
12.094564 -13.198406 2.9789684
12.14374 -13.200396 2.9684021
12.187634 -13.209772 2.9751902
12.235223 -13.196147 2.975888
12.278765 -13.202436 2.9896579
12.334825 -13.195495 2.9942689
12.392298 -13.209983 2.9635532
12.436528 -13.220139 2.9740679
12.48112 -13.220461 2.9782214
12.527052 -13.225892 2.9850335
12.580868 -13.2321 2.9854994
12.629298 -13.230378 2.989255
12.677467 -13.224162 2.9923387
12.726217 -13.23182 2.9957416
12.774438 -13.23857 2.9913843
12.824873 -13.233775 2.9931912
12.884785 -13.236018 2.9926481
12.924819 -13.252135 2.9949074
12.981833 -13.259859 2.9938152
13.034156 -13.257734 3.0006709
13.074846 -13.255812 3.0020313
14.579254 -13.321181 2.9641168
14.632124 -13.348814 2.9671791
14.679238 -13.351809 2.968009
14.726285 -13.357284 2.9799907
14.774061 -13.357705 2.9885495
14.82117 -13.35631 2.9907701
14.879151 -13.344654 2.9894567
11.987049 -13.127205 2.9825847
12.030613 -13.138861 2.9793985
12.149628 -13.167617 2.9859066
12.1926 -13.153015 2.968272
12.229654 -13.146758 2.9773731
12.282741 -13.149036 2.9732807
12.330502 -13.146632 2.9706092
12.382689 -13.153719 2.9815061
12.431335 -13.162221 2.9855807
12.488517 -13.157848 2.9885077
12.532395 -13.167441 2.9849381
12.584521 -13.167086 2.9855137
12.630262 -13.166867 2.9796994
12.67899 -13.166604 2.9749935
12.731998 -13.183193 2.9762251
12.781895 -13.190784 2.9889579
12.830439 -13.197881 2.9863563
12.888159 -13.201125 2.9831734
12.932832 -13.200224 2.9853377
12.98132 -13.203097 2.9957881
13.032808 -13.204046 3.000484
13.072865 -13.214603 3.0009701
14.544591 -13.288089 2.9623728
14.583517 -13.289648 2.9745555
14.640062 -13.296448 2.9701369
14.68223 -13.306731 2.9701097
14.728496 -13.304055 2.9780109
14.775459 -13.304221 2.9914925
14.817956 -13.307941 2.9994094
14.910872 -13.338172 2.9984276
11.99664 -13.086992 2.9738588
12.027874 -13.090131 2.9811988
12.158797 -13.074817 2.990339
12.286295 -13.080327 2.9929721
12.341828 -13.113141 2.9976392
12.390615 -13.111828 2.9761541
12.43861 -13.123575 2.9821792
12.485337 -13.116399 2.9822745
12.530368 -13.121982 2.9801004
12.581046 -13.123298 2.9838214
12.633866 -13.120508 2.9935768
12.689028 -13.12468 2.992126
12.737472 -13.138372 2.9782753
12.78313 -13.141411 2.984328
12.835504 -13.145656 2.9922423
12.882936 -13.141908 2.9880271
13.044628 -13.152064 3.0017743
13.084814 -13.153462 3.0030065
13.125758 -13.16891 3.0012138
14.555526 -13.266193 2.9545085
14.585593 -13.265039 2.966331
14.640847 -13.252418 2.9654529
14.684021 -13.251111 2.9709811
14.731791 -13.251425 2.9828088
14.779872 -13.25883 2.9939425
14.820434 -13.269115 2.9974298
11.057782 -12.956625 2.9779918
11.083308 -12.968409 2.9605482
11.997393 -13.035178 2.9770637
12.034387 -13.030132 2.9847682
12.08485 -13.027411 2.9867575
12.136156 -13.024391 2.9844499
12.17147 -13.019948 2.9908893
12.238484 -13.071719 2.9798567
12.312514 -13.061255 2.9553885
12.328589 -13.054437 2.9953351
12.388061 -13.054906 2.9616916
12.443797 -13.058054 2.9884415
12.495571 -13.060876 2.9858842
12.539301 -13.064765 2.9863234
12.586125 -13.062458 2.9841454
12.635847 -13.081717 2.9807949
12.688402 -13.075838 2.991044
12.741954 -13.076825 2.9875588
12.800617 -13.084419 2.992691
12.836702 -13.074656 2.996671
12.887089 -13.069434 2.9989324
12.935648 -13.067549 3.0034792
13.10495 -13.080231 2.9955289
13.125614 -13.079669 2.9979613
14.447885 -13.2081 2.9588211
14.486207 -13.209577 2.9708486
14.534323 -13.211611 2.9860077
14.584897 -13.207247 2.9679058
14.639417 -13.203261 2.964766
14.687897 -13.200959 2.9724166
14.732996 -13.204798 2.9812367
14.778523 -13.211962 2.9910312
14.823199 -13.217801 2.9928179
14.886634 -13.198253 2.9942448
11.052444 -12.931334 2.9826555
11.077996 -12.919782 2.9648006
11.993992 -12.989774 2.975733
12.038117 -12.993568 2.9776075
12.097466 -13.001027 2.9805205
12.141374 -12.995418 2.9850423
12.18875 -12.993096 2.9920921
12.232241 -12.99504 2.994031
12.288646 -13.01053 2.9799149
12.34251 -12.999192 2.9980977
12.38263 -13.009222 2.9853418
12.44646 -13.007903 2.9859004
12.490335 -13.019394 2.9791231
12.538319 -13.017404 2.9874721
12.595856 -13.016017 2.9837792
12.643288 -13.033393 2.977618
12.683569 -13.031131 2.9909301
12.748574 -13.051395 2.9920638
12.79258 -13.050464 2.9938772
12.83912 -13.044647 2.9933662
12.882087 -13.047267 2.9940519
12.930209 -13.045807 3.0001233
13.089825 -13.075784 3.004045
13.146738 -13.079079 3.0004282
13.189896 -13.078603 3.0008628
13.242861 -13.077764 3.0023587
14.463965 -13.121503 2.9570341
14.492262 -13.12258 2.9658725
14.544264 -13.136715 2.9718707
14.592951 -13.136319 2.9718974
14.64518 -13.143926 2.9678187
14.689795 -13.146282 2.9741435
14.73931 -13.155502 2.9855115
14.782721 -13.158989 2.9910839
14.824419 -13.166236 2.9998841
11.047384 -12.873465 2.9729147
11.076364 -12.896453 2.9777064
11.668973 -12.935368 2.9663532
11.693906 -12.934053 2.9745269
11.736992 -12.93352 2.9618571
11.927965 -12.907128 2.9595976
11.998617 -12.92401 2.9817972
12.051521 -12.939078 2.9655828
12.089835 -12.947186 2.9803691
12.148941 -12.946486 2.9959886
12.185478 -12.945375 3.0036964
12.243652 -12.945995 2.9709566
12.297846 -12.946492 2.9760854
12.344079 -12.953862 2.9707184
12.399489 -12.958495 2.974376
12.444639 -12.964034 2.9851327
12.493095 -12.966272 2.9855506
12.544036 -12.967443 2.986001
12.596774 -12.964231 2.9823675
12.652348 -12.971992 2.9795773
12.697897 -12.978214 2.987155
12.745306 -12.975582 2.98733
12.791473 -12.980168 2.9924335
12.837712 -12.978465 2.9854374
12.891397 -12.991945 2.9882071
12.946011 -12.98937 2.9926558
12.989179 -12.987243 2.9973207
13.042017 -12.984677 3.0021131
14.561639 -13.075893 2.9559669
14.593021 -13.093742 2.9632866
14.644219 -13.099636 2.9671667
14.691344 -13.099807 2.9800591
14.739868 -13.106712 2.9860811
14.789393 -13.10639 2.991879
14.835875 -13.107256 2.9935126
14.888161 -13.112446 2.9966166
11.047665 -12.831384 2.9829023
11.772008 -12.883107 2.9558344
11.802369 -12.86971 2.976409
11.835232 -12.878263 2.9908097
11.950397 -12.889748 2.9890461
11.999485 -12.886792 2.9847679
12.043374 -12.878391 2.9768782
12.100938 -12.877475 2.9738729
12.149868 -12.879067 2.9800959
12.202976 -12.893106 2.974359
12.25452 -12.90155 2.9884348
12.296034 -12.905891 2.9829209
12.347839 -12.911434 2.9850106
12.402314 -12.91677 2.9924908
12.454066 -12.918289 2.9881158
12.501969 -12.918242 2.9752035
12.549422 -12.921007 2.979718
12.593703 -12.924335 2.9877648
12.647776 -12.932302 2.9794762
12.697334 -12.930859 2.9824655
12.748641 -12.927306 2.9900496
12.794962 -12.932085 2.9877174
12.845999 -12.935022 2.9913044
12.897254 -12.935631 2.9925313
12.942116 -12.941149 2.9987614
12.997914 -12.928061 3.0013928
14.493261 -13.053396 2.960247
14.545724 -13.046698 2.9662406
14.593556 -13.041027 2.9727366
14.646748 -13.051389 2.9721391
14.693739 -13.053901 2.9783359
14.742549 -13.059627 2.9873335
14.785024 -13.058686 2.9939933
14.840769 -13.046888 2.9977632
11.051957 -12.7869 2.9593971
11.657615 -12.811715 2.9740205
11.70303 -12.813428 2.9860249
11.753876 -12.813168 2.9844682
11.812414 -12.819495 2.9889269
11.84902 -12.818128 2.985322
11.902825 -12.83486 2.9734113
11.952782 -12.829484 2.988508
11.9927 -12.849648 2.9939928
12.044024 -12.853203 2.9814365
12.1049 -12.861526 2.9600518
12.145225 -12.863884 2.9874616
12.208285 -12.85722 2.9691052
12.24347 -12.855137 2.9777761
12.304922 -12.857409 2.9756386
12.354277 -12.863061 2.9749317
12.402019 -12.86232 2.9741786
12.453773 -12.864423 2.9739349
12.49896 -12.86315 2.981081
12.551767 -12.864131 2.9726138
12.605386 -12.866054 2.9773233
12.654164 -12.865616 2.9828186
12.702223 -12.858618 2.9876564
12.746842 -12.859347 2.9929814
14.556152 -12.986837 2.9557905
14.602352 -12.990447 2.9633474
14.649999 -12.995026 2.9670165
14.695761 -13.002163 2.9781747
14.744613 -13.002787 2.9875245
14.789764 -13.002545 2.9944785
14.846345 -13.004299 2.9944243
14.877592 -13.000094 3.003407
11.669312 -12.777444 2.9589524
11.717333 -12.775858 2.9741971
11.752171 -12.774349 2.9872351
11.803428 -12.786186 2.9733884
11.851106 -12.787015 2.9885643
12.11821 -12.774535 2.9870782
12.207115 -12.803937 2.977428
12.248027 -12.793697 2.9816418
12.29715 -12.800672 2.9688144
12.345893 -12.794573 2.958673
12.414223 -12.831371 2.9744508
12.463503 -12.819786 2.9818678
12.496964 -12.822265 2.9888744
12.555387 -12.833229 2.9824045
12.609928 -12.828316 2.9906819
12.652541 -12.828155 2.990931
12.695394 -12.83025 2.9898567
12.754165 -12.842044 2.9906762
12.799778 -12.842117 3.0009553
12.857249 -12.821938 3.0040774
14.515121 -12.959588 2.9571607
14.558136 -12.954132 2.9630733
14.602214 -12.955719 2.972831
14.650681 -12.947788 2.9729118
14.699807 -12.951629 2.9797316
14.748118 -12.950262 2.9872065
14.803144 -12.951681 2.9878781
14.847694 -12.954116 3.0006278
11.663944 -12.711155 2.9838979
11.715501 -12.714111 2.9881902
11.76263 -12.723038 2.9849319
11.787469 -12.712828 3.0007875
12.102187 -12.744217 2.9611456
12.151506 -12.74968 2.9762502
12.192183 -12.736292 2.9893851
12.413831 -12.748123 2.9866853
12.459525 -12.748507 2.9633656
12.505848 -12.772399 2.9729955
12.550078 -12.760233 2.9994621
12.59533 -12.764337 3.0006351
14.499264 -12.8894 2.96138
14.559037 -12.891085 2.9669719
14.605808 -12.892572 2.9712536
14.653551 -12.896782 2.9728532
14.704182 -12.90002 2.9820323
14.750835 -12.904106 2.9882524
14.796087 -12.903571 2.9897654
14.852242 -12.905716 2.9943452
14.897879 -12.916417 3.002224
12.180416 -12.704912 2.9612262
12.215718 -12.70249 2.9850559
12.240632 -12.701365 2.9947667
12.452325 -12.728912 2.9910679
12.526524 -12.722731 2.9987972
12.570977 -12.710496 2.9874728
12.592269 -12.734877 2.9712584
12.773705 -12.752386 2.9836838
12.797825 -12.745559 2.9958355
14.61625 -12.844849 2.9601042
14.659738 -12.849824 2.9665141
14.704332 -12.851042 2.9820507
14.754515 -12.851501 2.990684
14.802229 -12.853914 2.9893796
14.852112 -12.858269 2.9981475
11.142189 -12.556103 2.9575684
11.18357 -12.601065 2.9965665
12.514857 -12.680563 2.9825408
12.567581 -12.662565 2.976162
14.514801 -12.801981 2.9584084
14.564352 -12.795054 2.9670947
14.614925 -12.794655 2.9687889
14.660217 -12.792571 2.9708972
14.713309 -12.79985 2.9805281
14.760888 -12.798874 2.9900119
14.807409 -12.799525 2.9816024
14.861427 -12.800511 2.994864
14.895767 -12.801929 3.0022449
11.132061 -12.511703 2.9673848
11.171198 -12.531964 2.9785173
11.206204 -12.540634 2.9965761
12.584794 -12.617083 2.9928875
12.617881 -12.639769 2.9967813
14.51712 -12.734267 2.9584906
14.568868 -12.742437 2.9685473
14.618092 -12.745074 2.9667075
14.661972 -12.745076 2.9695158
14.710318 -12.747237 2.9823332
14.759104 -12.751779 2.9914703
14.81452 -12.747465 2.9920962
14.858872 -12.767363 2.9955807
14.525409 -12.708193 2.9548504
14.568455 -12.693945 2.9628117
14.620281 -12.692372 2.9683747
14.667693 -12.696051 2.9731872
14.717388 -12.700699 2.9782369
14.763406 -12.704759 2.9850922
14.811604 -12.702257 2.9920428
14.854793 -12.713693 2.9992478
14.570248 -12.631302 2.9601402
14.625309 -12.633998 2.9671366
14.67116 -12.638865 2.9725168
14.719886 -12.64886 2.9808664
14.766874 -12.657825 2.9870794
14.814362 -12.658813 2.9851594
14.863043 -12.663747 2.9969072
11.183138 -12.386443 2.9954603
14.540856 -12.576155 2.9599533
14.574841 -12.587236 2.9619818
14.626143 -12.587671 2.969738
14.673562 -12.595383 2.9713387
14.721529 -12.603954 2.9796932
14.765615 -12.606316 2.9860899
14.820236 -12.610168 2.9893744
14.860487 -12.609635 2.9959321
8.4904795 -12.17004 2.9844289
8.5309715 -12.173346 2.9856031
8.5642481 -12.153923 2.9931352
9.3759718 -12.221533 2.981925
14.53933 -12.536476 2.9578693
14.578004 -12.537485 2.9663281
14.626772 -12.533936 2.9718225
14.672306 -12.546071 2.9769676
14.725116 -12.553608 2.9812827
14.770432 -12.553444 2.9872305
14.823337 -12.560619 2.990201
14.865858 -12.55705 2.9994872
8.4478369 -12.112413 2.9773924
8.4867001 -12.116649 2.990777
8.5338879 -12.128339 2.9917099
9.3522625 -12.163795 2.9953778
9.3840818 -12.172729 2.9800227
9.795207 -12.204781 2.9805727
9.8288431 -12.202969 2.972863
9.8642769 -12.191619 2.9667773
11.036405 -12.284719 2.9786341
14.539562 -12.480444 2.9553268
14.577854 -12.48299 2.9642987
14.630757 -12.489769 2.9730172
14.679937 -12.503209 2.9826987
14.729753 -12.50385 2.9780467
14.775608 -12.50727 2.9867291
14.826035 -12.50741 2.9896815
14.872841 -12.499983 2.9888694
14.924195 -12.497219 2.9972594
8.4860735 -12.079111 2.9952383
8.5307989 -12.053657 3.0046451
9.7594318 -12.144855 2.9729116
9.792697 -12.14581 2.9831192
9.8327084 -12.158108 2.9962289
10.251285 -12.166304 2.9610903
11.036615 -12.221987 2.9735017
11.493258 -12.2374 2.9934082
11.537265 -12.234901 2.99265
14.484909 -12.455004 2.9592848
14.535167 -12.451597 2.965266
14.58066 -12.439171 2.9680905
14.63294 -12.445555 2.972193
14.680724 -12.449486 2.9791324
14.730871 -12.452359 2.9852533
14.779051 -12.457455 2.9873242
14.831512 -12.454388 2.9839056
14.875459 -12.474751 3.001411
9.7653284 -12.113173 2.9937317
9.8015728 -12.103251 2.9800873
11.013537 -12.186435 2.9835551
11.035067 -12.181253 2.9761591
11.0688 -12.198503 2.9950385
11.464684 -12.194423 2.9922326
11.502769 -12.197302 2.9927926
11.53516 -12.195726 2.9984791
11.59088 -12.213708 2.9943318
11.646593 -12.210855 2.998836
11.682735 -12.218353 3.0001361
11.732265 -12.219404 3.0013099
14.543117 -12.376892 2.9575
14.587512 -12.39045 2.9632313
14.63656 -12.396621 2.9745941
14.682719 -12.395057 2.9814408
14.735785 -12.402516 2.9867034
14.778712 -12.405135 2.993381
14.830252 -12.414858 2.9896429
14.877842 -12.420567 2.9859133
14.926756 -12.41186 2.9981422
9.7991648 -12.04839 2.9667666
9.8266621 -12.031506 2.9826772
11.016147 -12.143652 2.9657063
11.028325 -12.133046 2.9800417
11.511527 -12.161615 3.0002716
11.5439 -12.1576 2.9949975
11.595461 -12.16293 2.9900489
11.643488 -12.158029 2.9957936
11.690985 -12.1637 3.003346
11.720979 -12.174055 3.0043132
14.55454 -12.337431 2.9568851
14.59042 -12.343563 2.9663105
14.639157 -12.347746 2.9751232
14.687391 -12.34726 2.9800489
14.733952 -12.354451 2.983299
14.781112 -12.349563 2.9890628
14.835348 -12.359519 2.9931552
9.7953844 -12.018301 2.9898272
9.8381138 -12.002321 2.9796319
11.638896 -12.114861 3.0014598
11.702788 -12.124318 2.9970498
11.755804 -12.113504 2.9897771
11.784484 -12.128791 2.990653
11.837663 -12.11965 2.9982033
11.873959 -12.130182 3.0040581
12.042254 -12.114986 2.9868577
14.502556 -12.309032 2.9587767
14.548307 -12.300323 2.9631062
14.591785 -12.297352 2.9657037
14.640516 -12.294136 2.9761288
14.689725 -12.298024 2.9869864
14.737174 -12.304527 2.988997
14.79165 -12.315367 2.9906752
14.839502 -12.31667 2.9822977
14.894146 -12.308391 2.985393
14.93649 -12.2985 2.9974251
9.8331881 -11.933702 2.9706287
11.765929 -12.088761 2.9908128
11.805126 -12.084939 2.9957232
11.848303 -12.073612 2.9958045
11.886424 -12.062774 3.0020909
14.551904 -12.243327 2.9582906
14.595791 -12.245686 2.964716
14.643923 -12.242386 2.9719775
14.692776 -12.248144 2.9815052
14.745003 -12.247969 2.9846787
14.794147 -12.248382 2.9874861
14.835718 -12.245508 2.9955182
14.510605 -12.194654 2.9548984
14.553016 -12.203505 2.9588921
14.598055 -12.194755 2.966316
14.647494 -12.195805 2.9733195
14.693654 -12.195787 2.9821143
14.743014 -12.205622 2.9918487
14.790675 -12.213236 2.9849241
14.843867 -12.203736 2.9798384
14.89537 -12.19818 2.9938014
14.521436 -12.134606 2.9608507
14.560132 -12.142207 2.9614091
14.600464 -12.144926 2.9687386
14.650208 -12.146796 2.971812
14.697892 -12.151784 2.9813352
14.749796 -12.159488 2.9885852
14.792969 -12.157357 2.988986
14.839709 -12.148915 2.9950571
14.565987 -12.080611 2.9567275
14.607779 -12.097692 2.9655466
14.654099 -12.096766 2.9692144
14.703571 -12.097968 2.9804964
14.749869 -12.10696 2.986171
14.796045 -12.104746 2.9951379
14.839047 -12.095877 2.999476
14.881044 -12.133141 2.9988472
12.170506 -11.895042 2.9581039
12.212667 -11.895334 2.9721284
12.264659 -11.89819 2.9808457
12.314492 -11.897468 2.9765189
12.3579 -11.89434 2.9824905
12.408905 -11.897039 2.9821129
12.470809 -11.901422 2.9977262
12.518377 -11.899124 3.001585
12.553874 -11.89742 3.0039945
14.568503 -12.029146 2.977674
14.605619 -12.045213 2.9639912
14.655413 -12.050632 2.9693148
14.704174 -12.055658 2.9776478
14.749907 -12.056601 2.9831793
14.798964 -12.035002 2.9865229
12.177681 -11.861547 2.9606938
12.20592 -11.858476 2.9810302
12.280001 -11.851109 2.9592161
12.319273 -11.856105 2.9686854
12.361866 -11.854811 2.9757402
12.407561 -11.852555 2.9853735
12.455778 -11.859408 2.9784875
12.511845 -11.858302 2.9833038
12.562389 -11.859516 2.9865248
12.61431 -11.855635 2.9822688
12.66078 -11.855663 2.9839833
12.707014 -11.855487 2.9870868
12.762219 -11.858823 2.9945321
12.818321 -11.858945 2.998472
14.614236 -12.012298 2.9674139
14.662544 -12.011386 2.9613836
14.707345 -12.006896 2.9673429
14.74566 -12.007714 2.9755583
14.80552 -12.021479 2.9891825
12.371696 -11.826221 2.958581
12.417739 -11.821334 2.9674649
12.469755 -11.813442 2.9811106
12.521014 -11.822555 2.9807611
12.571433 -11.831312 2.9900157
12.621667 -11.826835 2.99073
12.662619 -11.819648 2.9898484
12.763041 -11.851387 2.9889975
12.818727 -11.833425 2.994297
12.865359 -11.827718 2.9991157
12.896969 -11.814603 3.0035617
14.678323 -11.957028 2.9538703
14.698422 -11.953083 2.9602864
8.5522957 -14.277948 3.0263257
9.2989931 -14.25187 3.0189919
9.2850313 -14.211993 3.0330026
9.3254004 -14.218733 3.0304091
9.3541479 -14.225344 3.0342283
9.2699432 -14.191011 3.0343819
9.3097229 -14.170866 3.0283797
9.3457394 -14.181044 3.0549111
10.933049 -14.156304 3.0354931
10.981503 -14.178555 3.0148625
11.015398 -14.172986 3.0284538
11.046434 -14.158605 3.0222459
12.912151 -14.300861 3.0248909
10.941119 -14.119588 3.0335126
10.955346 -14.112487 3.0123537
11.01667 -14.114058 3.0293176
11.18183 -14.126577 3.0235219
11.218633 -14.126395 3.0365355
11.265834 -14.122972 3.0346987
11.318729 -14.119798 3.0343578
11.72665 -14.159017 3.0394962
11.76703 -14.155384 3.0207222
11.818705 -14.173708 3.0238967
11.866893 -14.177005 3.0354054
11.924558 -14.172199 3.0269713
11.973523 -14.169716 3.0377882
12.017413 -14.189169 3.0109255
12.073699 -14.193731 3.0140336
12.123179 -14.192456 3.0248291
12.17195 -14.189011 3.0351157
12.22913 -14.188413 3.0321879
12.277509 -14.187855 3.0398791
12.311415 -14.186844 3.0511086
10.931726 -14.092413 3.0276368
10.9621 -14.086316 3.0260348
11.012938 -14.083699 3.0221224
11.135733 -14.101482 3.032541
11.184361 -14.092657 3.0245566
11.228909 -14.096322 3.0315454
11.270885 -14.097189 3.0304036
11.31091 -14.09315 3.0231147
11.36594 -14.098258 3.0224738
11.415711 -14.119646 3.0089803
11.682796 -14.098166 3.0429842
11.73842 -14.117344 3.0189571
11.776219 -14.122894 3.0172472
11.825212 -14.125385 3.0217583
11.873798 -14.123584 3.0239019
11.919508 -14.128675 3.0250499
11.973403 -14.128888 3.025502
12.021565 -14.129827 3.0313632
12.070939 -14.133987 3.0331285
12.124557 -14.131743 3.0334868
12.176611 -14.13322 3.0388288
12.229954 -14.143659 3.0408206
12.274954 -14.155125 3.0336475
12.318986 -14.147527 3.0486162
12.382686 -14.143301 3.0376418
12.421092 -14.14216 3.0297575
12.47156 -14.144176 3.0233216
12.518163 -14.147421 3.0317347
12.56207 -14.14891 3.0448713
10.937984 -14.036765 3.0260353
10.974999 -14.019723 3.0244253
11.011967 -14.026275 3.0093856
11.193578 -14.04078 3.0247405
11.231739 -14.049304 3.0206501
11.285734 -14.052148 3.0124986
11.319111 -14.048105 3.0201297
11.364322 -14.051572 3.0083308
11.535922 -14.076362 3.0216303
11.583419 -14.07946 3.0216603
11.630136 -14.083591 3.0295863
11.686878 -14.090217 3.0209508
11.729821 -14.089341 3.0128922
11.786239 -14.067744 3.0098858
11.828703 -14.068668 3.0121527
11.876654 -14.07761 3.0124617
11.932849 -14.087189 3.0206029
11.979353 -14.086314 3.0204973
12.027705 -14.095964 3.0327959
12.074015 -14.09279 3.031718
12.124177 -14.093833 3.0379157
12.177191 -14.094847 3.0382247
12.225494 -14.103129 3.0399599
12.276109 -14.105305 3.0439177
12.325352 -14.107907 3.0409687
12.369117 -14.123565 3.0270233
12.423734 -14.111584 3.0353699
12.470897 -14.109807 3.0318589
12.512954 -14.135049 3.0301309
12.563322 -14.142191 3.0307539
12.620843 -14.147971 3.0379758
12.663212 -14.149581 3.0508063
11.288277 -13.983357 3.0196736
11.727173 -14.024626 3.0082643
11.784933 -14.028713 3.012346
11.82469 -14.043492 3.0142083
11.877189 -14.042625 3.0182717
11.92926 -14.047252 3.0216138
11.980303 -14.049397 3.0257065
12.026439 -14.053491 3.0275214
12.074925 -14.051288 3.0269339
12.126662 -14.052286 3.032989
12.177546 -14.056355 3.0374806
12.227325 -14.055409 3.0402446
12.27582 -14.059113 3.03984
12.33079 -14.064837 3.0366414
12.379622 -14.069711 3.0399644
12.428355 -14.072607 3.0394397
12.476837 -14.071478 3.0362961
12.527864 -14.081181 3.0383782
12.57529 -14.068683 3.0437822
12.624852 -14.066267 3.0478098
12.657347 -14.068862 3.0525093
11.265049 -13.960712 3.0139089
11.853981 -13.954374 3.0060873
11.888113 -13.98585 3.007798
11.931295 -13.979771 3.0086365
11.983912 -13.984444 3.0143409
12.034107 -13.984717 3.0186069
12.081025 -13.979885 3.0275884
12.135179 -13.98507 3.0343878
12.181499 -13.984553 3.036427
12.224421 -13.99086 3.0448523
12.269891 -13.997229 3.0452361
12.324448 -14.006833 3.0341892
12.375903 -14.01071 3.0369546
12.425524 -14.013743 3.0422196
12.473217 -14.02135 3.0467408
12.524862 -14.031135 3.0512877
11.242646 -13.897342 3.0194163
11.262966 -13.899361 3.0241756
12.43137 -13.977377 3.036411
12.490926 -13.971823 3.0412898
12.530637 -13.976751 3.0400403
12.586854 -13.974715 3.0437994
12.629329 -13.986696 3.0438321
12.683403 -13.990149 3.0520458
13.891459 -14.048776 3.0105712
13.932074 -14.049236 3.0238712
13.979666 -14.055131 3.0318871
14.023844 -14.058792 3.0540681
12.479481 -13.935843 3.0379925
12.525871 -13.939476 3.0476425
12.569822 -13.939547 3.0517216
13.887964 -14.000454 3.0143449
13.931227 -13.994778 3.0290773
13.98481 -14.002009 3.0396469
14.033589 -14.027474 3.0385351
14.780199 -14.038947 3.0121942
13.991385 -13.980166 3.0450172
14.026663 -13.981874 3.0456905
14.078728 -13.98243 3.0407491
14.116282 -13.977419 3.0545106
14.692834 -13.993505 3.0139387
14.732412 -13.997822 3.0135717
14.782579 -13.998697 3.0177212
14.748404 -13.957633 3.0057163
14.794329 -13.953815 3.0116804
14.840728 -13.954089 3.0236459
14.888291 -13.958492 3.0385153
14.934755 -13.960991 3.047173
14.974654 -13.950691 3.0522885
14.688467 -13.911339 3.0095148
14.738696 -13.913348 3.0256078
14.796017 -13.908424 3.0128989
14.840206 -13.909064 3.0238807
14.891133 -13.912202 3.0357301
14.935218 -13.912508 3.0455766
14.98936 -13.906727 3.0487592
15.04026 -13.935579 3.0472267
12.830495 -13.730559 3.0483525
12.886431 -13.732324 3.0534415
14.759307 -13.840384 3.0088925
14.800813 -13.857745 3.011976
14.845402 -13.861227 3.0240703
14.894168 -13.864885 3.0387931
14.9393 -13.872123 3.0421116
14.995358 -13.873275 3.036339
15.033705 -13.859303 3.0420802
12.904785 -13.672659 3.0303705
14.648917 -13.800527 3.0186338
14.699263 -13.802739 3.0355828
14.755109 -13.805203 3.0191848
14.798804 -13.810184 3.0145814
14.848598 -13.81042 3.0261421
14.897474 -13.813886 3.0375485
14.939094 -13.813282 3.0458903
15.05591 -13.846969 3.0374725
15.078108 -13.842488 3.0439069
15.155735 -13.807281 3.0068529
15.177501 -13.806351 3.0111089
12.865348 -13.654438 3.033103
14.700268 -13.744265 3.0096128
14.757818 -13.754054 3.0154014
14.803475 -13.754592 3.0148642
14.851947 -13.759114 3.0259821
14.900515 -13.765397 3.0386558
14.943718 -13.768065 3.0378809
14.991726 -13.771724 3.0411146
15.045599 -13.759523 3.0527804
15.158189 -13.782271 3.0095038
15.202798 -13.786565 3.0205898
15.250971 -13.782041 3.0332041
15.299642 -13.786036 3.0445101
15.334122 -13.780532 3.0516772
14.766123 -13.707388 3.0070119
14.809186 -13.710179 3.0154688
14.854544 -13.711868 3.0253234
14.902021 -13.711636 3.0363185
14.951117 -13.720834 3.0472305
15.16511 -13.732788 3.0084729
15.203252 -13.728056 3.0189366
15.24951 -13.734542 3.0301716
15.307177 -13.740296 3.0471988
15.343339 -13.761288 3.0536561
11.864772 -13.463405 3.0539796
12.578419 -13.516304 3.0272737
12.616696 -13.507353 3.037677
12.642601 -13.52369 3.0196149
12.694798 -13.518057 3.0359735
14.677399 -13.64764 3.0101597
14.716924 -13.647373 3.0148945
14.763836 -13.65148 3.023627
14.809189 -13.656652 3.0222473
14.858196 -13.660789 3.0283272
14.908916 -13.663839 3.0390105
14.954861 -13.666895 3.0416386
14.997159 -13.674297 3.0470347
15.168539 -13.677479 3.0089071
15.20567 -13.678849 3.0179155
15.257016 -13.68674 3.0325739
15.304209 -13.690288 3.0457582
11.830508 -13.411464 3.0508053
11.882832 -13.419944 3.0221305
11.906525 -13.419079 3.0498176
12.032615 -13.427603 3.0519803
12.073635 -13.419024 3.0347898
12.176533 -13.430408 3.0526962
12.226043 -13.436273 3.0375268
12.34024 -13.450719 3.0441535
12.363798 -13.448933 3.0499487
12.390814 -13.447077 3.0488987
12.453996 -13.442622 3.0516717
12.513944 -13.451235 3.0319312
12.563656 -13.458898 3.0360901
12.617408 -13.465352 3.0308294
12.667155 -13.478386 3.0331178
14.764088 -13.592317 3.0163298
14.815907 -13.608337 3.0173171
14.860501 -13.610163 3.0254958
14.907985 -13.608418 3.0394051
14.956923 -13.598377 3.0421898
14.991523 -13.595326 3.0518243
15.163643 -13.628322 3.0088868
15.213871 -13.637229 3.0218203
15.262341 -13.631124 3.0359354
15.309326 -13.640167 3.0448446
15.354669 -13.62746 3.0528808
11.875052 -13.386835 3.0181119
11.929461 -13.380476 3.0239055
11.964474 -13.384457 3.0381818
12.024372 -13.38365 3.0474606
12.071586 -13.383429 3.033277
12.124365 -13.400069 3.0276952
12.162956 -13.401888 3.0453682
12.217115 -13.393974 3.0310471
12.269106 -13.395483 3.0280688
12.321487 -13.40088 3.0370061
12.372838 -13.399054 3.0402465
12.418464 -13.400901 3.0440004
12.473619 -13.40358 3.0492544
12.503286 -13.439151 3.0541987
12.562353 -13.415063 3.0267389
12.625258 -13.431879 3.0167282
12.709187 -13.447201 3.0468559
14.682562 -13.525861 3.0073164
14.712598 -13.527428 3.0180616
14.764664 -13.54487 3.0227506
14.815513 -13.558064 3.0168548
14.863103 -13.558974 3.0291822
14.910913 -13.560638 3.0389245
14.949718 -13.56247 3.0489545
15.00024 -13.590961 3.048507
15.166819 -13.580948 3.0124714
15.209206 -13.581355 3.0235074
15.256231 -13.587099 3.0353093
15.303831 -13.589034 3.0492084
11.729125 -13.313071 3.007916
11.75768 -13.317709 3.008296
11.882899 -13.335017 3.0196226
11.921774 -13.319414 3.0312619
11.97375 -13.3354 3.0342274
12.013169 -13.341461 3.0384493
12.069202 -13.330864 3.0270445
12.126388 -13.323224 3.0221899
12.188314 -13.32653 3.0223653
12.224548 -13.348864 3.0322397
12.271852 -13.357137 3.0396986
12.324526 -13.362208 3.0334942
12.373311 -13.358759 3.0350423
12.424577 -13.359048 3.0421569
12.476516 -13.359396 3.0390606
12.523526 -13.362976 3.0255523
12.564487 -13.367399 3.0441959
12.728949 -13.356607 3.0477772
12.816628 -13.37357 3.0485797
12.877145 -13.374056 3.0187907
12.933423 -13.373869 3.0292428
12.961403 -13.371982 3.0364754
14.659571 -13.474739 3.009372
14.778437 -13.491261 3.012542
14.820116 -13.505336 3.0141602
14.865674 -13.505809 3.0218081
14.914939 -13.517477 3.0365136
14.964069 -13.520345 3.0411696
15.011488 -13.516605 3.0387993
15.044752 -13.503712 3.0437686
15.131682 -13.512914 3.00965
15.171658 -13.528454 3.0134475
15.220173 -13.533813 3.0229552
15.263683 -13.539304 3.0368457
15.310659 -13.535252 3.0492294
11.679 -13.281643 3.0174685
11.719272 -13.281 3.0118401
11.76552 -13.257524 3.0090721
11.988388 -13.287619 3.0094831
12.023388 -13.286198 3.0185955
12.072587 -13.286203 3.0253582
12.126442 -13.283588 3.0245459
12.176494 -13.300021 3.0341747
12.223859 -13.2989 3.034658
12.270679 -13.310711 3.0310524
12.322661 -13.298395 3.0463412
12.367191 -13.297027 3.0501988
12.432314 -13.307632 3.0283444
12.47129 -13.309278 3.0318766
12.527281 -13.320653 3.0309236
12.581893 -13.321842 3.0269694
12.625061 -13.322058 3.034852
12.675256 -13.318825 3.0275455
12.72784 -13.310634 3.0318794
12.77522 -13.331052 3.0336778
12.823768 -13.330048 3.0327306
12.876726 -13.324994 3.0270715
12.923006 -13.328116 3.0261962
12.963059 -13.35549 3.0453143
13.025495 -13.360216 3.0427785
14.689982 -13.474656 3.0203049
14.719445 -13.461524 3.0210733
14.773577 -13.461002 3.027379
14.821555 -13.457176 3.0191457
14.869778 -13.462996 3.0283244
14.920097 -13.471041 3.0372243
14.966978 -13.469624 3.0446682
15.007924 -13.46911 3.0472386
15.068057 -13.498044 3.0522883
15.211234 -13.505551 3.0321314
15.255514 -13.501414 3.0446463
11.991306 -13.220021 3.0125856
12.029284 -13.239285 3.0289354
12.128488 -13.257925 3.0262539
12.182841 -13.254852 3.0310397
12.231564 -13.256596 3.0290091
12.276303 -13.257452 3.0285394
12.320712 -13.25601 3.0223751
12.377016 -13.264385 3.0297463
12.42357 -13.260215 3.034663
12.475884 -13.268854 3.0340652
12.526906 -13.271318 3.0340116
12.571242 -13.263827 3.0323212
12.624114 -13.273683 3.035126
12.677458 -13.278286 3.0319953
12.72543 -13.273085 3.0244024
12.771518 -13.284344 3.0342007
12.829726 -13.277955 3.031651
12.868197 -13.275603 3.0320158
12.933152 -13.296582 3.026253
12.974001 -13.302886 3.0312696
13.020325 -13.298353 3.0276165
13.073355 -13.307618 3.0381303
14.729508 -13.416237 3.0078518
14.777028 -13.408994 3.0134821
14.828197 -13.403083 3.0162339
14.872965 -13.411489 3.0279737
14.922052 -13.415337 3.0393281
14.972691 -13.417768 3.0394647
15.02489 -13.419332 3.0386076
15.05836 -13.400438 3.0447669
12.03927 -13.193251 3.0255568
12.077288 -13.183403 3.0413435
12.122343 -13.175322 3.0298412
12.185746 -13.188192 3.0205219
12.292892 -13.197485 3.0208592
12.333786 -13.206512 3.0245507
12.38369 -13.205139 3.0243542
12.428512 -13.201136 3.0226507
12.481024 -13.206819 3.0240057
12.532992 -13.218183 3.0323157
12.578906 -13.216855 3.0366719
12.63154 -13.227646 3.0350742
12.668606 -13.228435 3.0458617
12.738662 -13.230082 3.0294654
12.781176 -13.230776 3.0295355
12.831327 -13.238215 3.0294344
12.876623 -13.238456 3.0383894
12.926756 -13.245947 3.0343068
12.980521 -13.254676 3.0326672
13.034115 -13.255788 3.0440335
13.079918 -13.253427 3.0325439
13.127349 -13.251599 3.030793
13.176536 -13.250714 3.0343044
13.227315 -13.253231 3.0337386
13.261011 -13.268982 3.0298989
14.728993 -13.366012 3.0141139
14.781357 -13.356375 3.0145535
14.825979 -13.360806 3.019803
14.875315 -13.365532 3.0268872
14.924731 -13.365751 3.0381215
14.967281 -13.365848 3.0483785
15.087833 -13.394615 3.0515842
12.00002 -13.129201 3.0257339
12.042744 -13.141575 3.0251725
12.078841 -13.14586 3.0434327
12.123934 -13.131382 3.054502
12.18122 -13.160509 3.0458441
12.228813 -13.153153 3.0384593
12.278966 -13.141286 3.0347211
12.337178 -13.161084 3.0284262
12.386223 -13.163035 3.0247495
12.439717 -13.156002 3.0181811
12.489546 -13.172001 3.0241656
12.531014 -13.161555 3.0268378
12.578738 -13.171193 3.0347843
12.633008 -13.164274 3.0238383
12.675145 -13.167656 3.0147417
12.735503 -13.179637 3.0361576
12.788673 -13.178296 3.0351458
12.832922 -13.184892 3.0358448
12.878057 -13.186984 3.0399406
12.934519 -13.185704 3.0338268
12.980804 -13.190358 3.0341182
13.030556 -13.195139 3.0331049
13.083171 -13.202955 3.0226858
13.127072 -13.202459 3.0297663
13.180873 -13.202431 3.0328825
13.234304 -13.197505 3.0310676
13.273666 -13.212564 3.0424025
14.683807 -13.294881 3.0093997
14.732486 -13.309478 3.021488
14.78653 -13.304663 3.0196095
14.833708 -13.309097 3.0198357
14.877967 -13.308351 3.0278766
14.925711 -13.311811 3.040602
14.973292 -13.324176 3.0399487
15.033172 -13.309399 3.0410533
15.066602 -13.302055 3.0506988
12.003476 -13.093013 3.0248623
12.03977 -13.088943 3.0271804
12.079572 -13.096699 3.0391045
12.137659 -13.101848 3.0474904
12.18667 -13.096098 3.0382676
12.227579 -13.098001 3.0303931
12.282926 -13.100014 3.0351899
12.336842 -13.101516 3.0395913
12.389623 -13.106215 3.0434148
12.432309 -13.106418 3.0254915
12.481419 -13.11648 3.0165656
12.532829 -13.114297 3.0292239
12.589735 -13.114855 3.0265145
12.64745 -13.12385 3.0273445
12.686994 -13.127522 3.0253637
12.738958 -13.12374 3.0212557
12.788166 -13.130713 3.0320091
12.835116 -13.133994 3.0356481
12.888376 -13.144211 3.0329325
12.931226 -13.141896 3.0274012
12.984141 -13.14405 3.0203097
13.03612 -13.149318 3.0315371
13.086876 -13.152441 3.0305901
13.133474 -13.154302 3.0323992
13.183427 -13.161271 3.0392704
13.231524 -13.162503 3.0376809
13.266001 -13.172897 3.0408814
14.731015 -13.259489 3.0121241
14.789406 -13.257576 3.0153008
14.834019 -13.259271 3.0205662
14.881868 -13.26389 3.0309997
14.931084 -13.263762 3.0395155
14.97362 -13.264097 3.0470364
15.009395 -13.262053 3.0537829
11.051557 -12.953361 3.0220652
12.002089 -13.027488 3.0235538
12.036126 -13.044032 3.020963
12.082853 -13.03874 3.0306625
12.142559 -13.029149 3.0403636
12.190096 -13.048122 3.0352013
12.23983 -13.052355 3.038343
12.295218 -13.065265 3.031637
12.337941 -13.068766 3.0386279
12.392731 -13.059602 3.0364518
12.441477 -13.057071 3.0182552
12.487036 -13.062502 3.0251739
12.533837 -13.058982 3.0259764
12.5911 -13.066985 3.026448
12.63791 -13.063341 3.0298305
12.6917 -13.080339 3.0292237
12.743097 -13.074752 3.0163271
12.787108 -13.091264 3.0237079
12.83991 -13.095732 3.0283132
12.88795 -13.092653 3.0300519
12.937177 -13.092633 3.0339437
12.989986 -13.094402 3.03914
13.039609 -13.08901 3.037595
13.088772 -13.089298 3.0380075
13.140984 -13.099638 3.0363657
13.183061 -13.11099 3.0417328
13.23626 -13.109591 3.0413771
13.276134 -13.111998 3.0474391
14.593036 -13.21469 3.0063362
14.633106 -13.217011 3.0205004
14.692576 -13.215971 3.0281305
14.730688 -13.210894 3.0297661
14.792196 -13.205396 3.0145705
14.836825 -13.204662 3.0245059
14.884495 -13.211722 3.0335879
14.929812 -13.21613 3.0420425
14.982406 -13.22421 3.048104
15.022522 -13.233548 3.0540287
11.051623 -12.926172 3.0324485
11.086924 -12.941133 3.0269849
12.007872 -12.98804 3.0203474
12.046401 -12.984987 3.0270331
12.089254 -12.993739 3.0251598
12.146024 -12.996012 3.0228255
12.191521 -12.997849 3.0317035
12.241073 -12.994893 3.0310559
12.28943 -12.996956 3.0364316
12.344229 -12.998717 3.0317562
12.391331 -13.005013 3.0285697
12.438168 -13.007204 3.0218539
12.486355 -13.007067 3.0241854
12.545529 -13.025353 3.0295792
12.592843 -13.03069 3.0303061
12.634819 -13.022325 3.0330772
12.687777 -13.030779 3.0224693
12.739962 -13.03049 3.023706
12.789923 -13.034415 3.0235014
12.841806 -13.038198 3.0290518
12.892979 -13.035728 3.0369449
12.940831 -13.040462 3.0318134
12.987509 -13.046575 3.0304041
13.044687 -13.051881 3.0269585
13.090945 -13.050328 3.0261762
13.1408 -13.057078 3.0320621
13.191477 -13.05937 3.0343268
13.241594 -13.056981 3.0453994
13.278902 -13.057393 3.0457356
14.640616 -13.130373 3.017844
14.698464 -13.139463 3.0224395
14.738747 -13.140254 3.0312552
14.791668 -13.150269 3.0179286
14.838163 -13.15566 3.018513
14.88639 -13.162292 3.0331087
14.933342 -13.164241 3.0405326
14.978645 -13.164886 3.0419042
15.040379 -13.162644 3.044817
11.032857 -12.887392 3.0267494
11.081168 -12.894147 3.0259414
12.017929 -12.914884 3.0048623
12.037205 -12.923368 3.0183952
12.101599 -12.934615 3.0211887
12.151756 -12.927564 3.0231099
12.19409 -12.943436 3.0334024
12.252609 -12.955351 3.0124505
12.289685 -12.95426 3.0291622
12.343788 -12.9508 3.0239553
12.393851 -12.958489 3.0244446
12.445522 -12.968137 3.0252798
12.500187 -12.972331 3.0206239
12.541634 -12.963297 3.0305693
12.601651 -12.958222 3.023278
12.646411 -12.974125 3.0158079
12.702598 -12.975676 3.0148327
12.746995 -12.971375 3.0281808
12.797866 -12.979136 3.0287344
12.844321 -12.982622 3.0306447
12.890229 -12.982646 3.0297608
12.945578 -12.990431 3.0315347
12.995749 -12.994106 3.0367703
13.04374 -13.005383 3.0380769
13.095535 -12.996998 3.0384753
13.145553 -13.01056 3.0345523
13.198132 -13.019429 3.0365994
13.245141 -13.022715 3.0368171
13.273806 -13.008743 3.0458465
14.715853 -13.101101 3.0050538
14.747409 -13.105842 3.012295
14.792378 -13.105186 3.0186594
14.841773 -13.10982 3.0321004
14.888571 -13.11065 3.0373001
14.935403 -13.108728 3.0373514
14.98872 -13.111169 3.0499344
11.059872 -12.846276 3.031162
11.854046 -12.876658 3.0056214
11.895656 -12.874143 3.0109522
11.953629 -12.865874 3.0250685
12.053331 -12.893679 3.0166771
12.092956 -12.903593 3.0351336
12.139534 -12.909782 3.0356205
12.199433 -12.898377 3.0144498
12.244529 -12.889491 3.0215724
12.298106 -12.894907 3.0411897
12.355721 -12.915215 3.0353732
12.402643 -12.905225 3.0201313
12.449684 -12.921169 3.0214787
12.507358 -12.918792 3.0190573
12.555602 -12.915091 3.0199177
12.601932 -12.911744 3.022583
12.642025 -12.923 3.0287254
12.697888 -12.922875 3.0345504
12.751417 -12.923582 3.0365245
12.796282 -12.926842 3.0318935
12.844235 -12.937198 3.0302155
12.89886 -12.946666 3.0269175
12.947229 -12.945478 3.0215039
12.995708 -12.949818 3.0238481
13.045761 -12.950362 3.0307436
13.092633 -12.950293 3.0339258
13.147762 -12.959085 3.0224488
13.20026 -12.959732 3.0265214
13.245461 -12.964283 3.029959
14.650912 -13.061999 3.0138035
14.69486 -13.052096 3.0158799
14.74193 -13.055143 3.0241077
14.799332 -13.057483 3.0199385
14.844504 -13.060006 3.0280662
14.894171 -13.062004 3.0368841
14.941504 -13.065171 3.0425265
14.988827 -13.073694 3.0399833
15.041477 -13.076965 3.0435851
11.754192 -12.814277 3.0120606
11.808627 -12.811319 3.0220363
11.866628 -12.821428 3.0260918
11.904275 -12.821992 3.0192292
11.944911 -12.824763 3.0188355
12.000005 -12.840087 3.0289416
12.051629 -12.842295 3.0399897
12.108769 -12.839567 3.0417128
12.156954 -12.848048 3.0335159
12.197782 -12.846796 3.0290499
12.247866 -12.846036 3.0397267
12.292057 -12.864485 3.0231075
12.345332 -12.851061 3.051712
12.394895 -12.849702 3.0349345
12.44936 -12.866436 3.0340552
12.511167 -12.878883 3.0229654
12.541577 -12.866303 3.0334733
12.579322 -12.855795 3.0535295
12.653018 -12.897069 3.0375104
12.698821 -12.893339 3.0232573
12.749736 -12.885909 3.0313404
12.8019 -12.881648 3.0316782
12.848519 -12.89159 3.0339332
12.900843 -12.897232 3.0307584
12.948779 -12.896363 3.0297174
12.993246 -12.910746 3.0287104
13.049277 -12.904224 3.0339932
13.097419 -12.909653 3.0265656
13.149578 -12.900412 3.0347853
13.202847 -12.905377 3.0345833
13.255655 -12.91982 3.04181
13.287731 -12.928193 3.0418661
14.714927 -12.994974 3.0068002
14.751999 -12.999559 3.0132954
14.797524 -13.005403 3.0203753
14.84497 -13.004252 3.0260513
14.897903 -13.00974 3.0358489
14.935266 -13.015972 3.0420146
14.993721 -13.02051 3.0446489
11.699903 -12.768931 3.0147054
11.766095 -12.767541 3.0135119
11.811864 -12.763632 3.0213728
11.86734 -12.761464 3.0296512
11.905512 -12.780102 3.023401
11.954484 -12.77605 3.0358534
12.006509 -12.790834 3.0373054
12.054035 -12.79849 3.0348096
12.104204 -12.793703 3.0317419
12.155383 -12.785096 3.0299811
12.205798 -12.798999 3.029943
12.252188 -12.806228 3.042392
12.299718 -12.812234 3.0387762
12.351259 -12.816381 3.040185
12.406651 -12.812522 3.0264738
12.456484 -12.814658 3.0328231
12.508066 -12.812007 3.0306993
12.541715 -12.827716 3.041029
12.584245 -12.815966 3.0208466
12.726764 -12.815595 3.0073206
12.7591 -12.83231 3.0268638
12.805412 -12.836155 3.0294738
12.853437 -12.839995 3.035512
12.899693 -12.843277 3.0313396
12.951979 -12.840961 3.0229459
13.001691 -12.850295 3.0238247
13.053992 -12.851456 3.0258124
13.104734 -12.851501 3.0257723
13.15337 -12.853342 3.0304496
13.204405 -12.854321 3.0313249
13.249603 -12.859541 3.037415
14.663972 -12.969663 3.0122483
14.703819 -12.963511 3.0158012
14.754707 -12.960407 3.0216568
14.800155 -12.957841 3.0246353
14.84734 -12.96302 3.0317516
14.898449 -12.95977 3.0391126
14.949422 -12.968536 3.0421512
14.992271 -12.971201 3.0410128
15.030176 -12.965578 3.0515084
12.008116 -12.756629 3.0407996
12.052128 -12.755434 3.0399396
12.108027 -12.740021 3.0267265
12.162573 -12.747768 3.0298107
12.210249 -12.743636 3.0374379
12.256096 -12.745444 3.0483892
12.300933 -12.754004 3.0523536
12.365378 -12.731679 3.0333486
12.407183 -12.751214 3.0308652
12.464601 -12.770912 3.0405643
12.518519 -12.762792 3.0105884
12.557195 -12.771522 3.0391695
12.593445 -12.780949 3.0457473
12.715495 -12.783734 3.0505524
12.762156 -12.78623 3.0435452
12.806694 -12.794156 3.0447521
12.832007 -12.788679 3.050699
12.911141 -12.789823 3.0460839
12.964763 -12.792044 3.0321517
13.009481 -12.802379 3.0265741
13.055256 -12.804605 3.0230513
13.104784 -12.803358 3.0244238
13.15969 -12.801726 3.0356874
13.210847 -12.801687 3.0395262
13.256993 -12.805295 3.0392938
13.290508 -12.797912 3.0377564
14.657686 -12.89045 3.0172241
14.711416 -12.899698 3.0190907
14.75771 -12.901076 3.0204475
14.804972 -12.90652 3.022161
14.852112 -12.908197 3.0335283
14.901747 -12.914352 3.0405979
14.943876 -12.917371 3.0419312
14.984598 -12.895233 3.0304024
12.134906 -12.699282 3.0208349
12.170826 -12.695524 3.0312974
12.216763 -12.697831 3.0397496
12.262958 -12.705034 3.0346406
12.301273 -12.699934 3.034059
12.351818 -12.699792 3.0288227
12.411269 -12.70026 3.0348635
12.46637 -12.711983 3.0313315
12.50782 -12.71436 3.0308175
12.558645 -12.704103 3.0429835
12.588475 -12.699301 3.0369899
12.710975 -12.726126 3.0472486
12.762359 -12.737972 3.0360944
12.814276 -12.743666 3.0279109
12.838788 -12.727806 3.0479228
12.907652 -12.749573 3.0488133
13.114706 -12.774815 3.0289574
13.164349 -12.776569 3.0250003
13.205154 -12.769146 3.0299385
13.251624 -12.776919 3.0282552
14.714375 -12.858099 3.0088818
14.761934 -12.855044 3.0107203
14.807613 -12.857595 3.0198905
14.857776 -12.858116 3.0311508
14.905047 -12.865221 3.0359108
14.952655 -12.858697 3.032876
15.002498 -12.871417 3.0457082
15.030831 -12.881937 3.05024
11.208106 -12.600381 3.0103884
12.426151 -12.642916 3.0503001
12.473674 -12.665264 3.0324705
12.524674 -12.672458 3.0166464
12.558168 -12.670622 3.0280211
12.659002 -12.654971 3.0498502
12.867813 -12.708527 3.053679
14.673583 -12.802801 3.0132878
14.711301 -12.788456 3.0140953
14.762987 -12.79913 3.0215633
14.808126 -12.802956 3.0213895
14.858429 -12.809814 3.0335634
14.905879 -12.811351 3.0418353
14.960673 -12.815545 3.0250807
15.01134 -12.837539 3.0470853
11.22658 -12.528413 3.0104244
11.268241 -12.547545 3.0263448
12.508177 -12.614789 3.0487804
12.586927 -12.615954 3.0291376
12.619426 -12.619578 3.033788
12.666299 -12.625881 3.0310848
14.68527 -12.735052 3.0086055
14.718017 -12.749194 3.0181854
14.768839 -12.754118 3.0212121
14.811813 -12.757673 3.0171082
14.862822 -12.758719 3.028975
14.911839 -12.761536 3.0398419
14.964199 -12.769425 3.0360892
15.010027 -12.770763 3.0395169
15.043793 -12.765558 3.0485504
12.586344 -12.585766 3.0274062
12.607484 -12.581198 3.0380244
14.686318 -12.690237 3.0075488
14.720707 -12.70497 3.0134535
14.77104 -12.710472 3.0179858
14.8184 -12.708758 3.0236197
14.865663 -12.707067 3.0288908
14.915042 -12.712819 3.0367157
14.964367 -12.713349 3.0393145
15.003331 -12.713198 3.0452833
15.046317 -12.744949 3.0466335
14.731136 -12.651147 3.0150595
14.773693 -12.65905 3.0190098
14.818241 -12.658389 3.0229645
14.869939 -12.659143 3.0290635
14.915647 -12.663089 3.0340242
14.963925 -12.65807 3.0384197
15.015337 -12.678672 3.0473785
8.5099382 -12.200135 3.016876
11.217804 -12.382833 3.016351
14.721596 -12.610533 3.01072
14.778011 -12.609943 3.0155866
14.821877 -12.608424 3.0230608
14.873241 -12.608023 3.0285802
14.918045 -12.606679 3.0391905
14.972067 -12.620293 3.0413256
15.02229 -12.627643 3.0476871
8.5121374 -12.149652 3.0301278
8.54953 -12.180699 3.0226262
8.5814915 -12.173668 3.0325358
9.3581781 -12.213006 3.0331576
9.3797064 -12.219099 3.0322716
12.837462 -12.43552 3.0316577
12.878234 -12.432904 3.0342691
14.690518 -12.542656 3.0067875
14.727855 -12.547194 3.0172045
14.781456 -12.550098 3.0224659
14.823991 -12.556658 3.0248091
14.87419 -12.558866 3.0310163
14.920647 -12.564631 3.0361757
