# .PCD v0.7 - Point Cloud Data file format
VERSION 0.7
FIELDS x y z
SIZE 4 4 4
TYPE F F F
COUNT 1 1 1
WIDTH 1558
HEIGHT 1
VIEWPOINT 0 0 0 1 0 0 0
POINTS 1558
DATA ascii
10.867617 -19.021379 2.7767098
10.914282 -19.021484 2.7889273
10.966954 -19.028212 2.7762864
11.011663 -19.024536 2.791785
11.924323 -19.092361 2.7802882
11.967156 -19.099257 2.7827177
12.002657 -19.092392 2.7796679
14.169742 -19.211857 2.7685041
14.219118 -19.23205 2.7713399
14.266258 -19.240242 2.7715352
14.314097 -19.239382 2.7784348
14.36255 -19.242451 2.7875094
14.407479 -19.238329 2.7946663
14.464234 -19.237799 2.8018913
10.784678 -18.975439 2.7833636
10.821313 -18.978371 2.7891369
10.872062 -18.981813 2.7975338
10.966113 -19.001984 2.7881174
11.007721 -18.998417 2.8056173
11.934735 -19.034227 2.7920034
11.973485 -19.049297 2.7802536
12.002647 -19.043158 2.7755566
14.075624 -19.183756 2.76243
14.117589 -19.178755 2.7675745
14.167707 -19.174288 2.7769485
14.219632 -19.180632 2.7796464
14.270228 -19.187101 2.7741852
14.317152 -19.18968 2.7813232
14.365738 -19.196056 2.7904251
14.412971 -19.200291 2.7968705
14.463463 -19.20632 2.7966814
14.514399 -19.206787 2.80287
10.821028 -18.941568 2.7713912
10.874059 -18.929861 2.7762203
10.919729 -18.928137 2.7917557
10.962887 -18.91888 2.7981799
11.864964 -18.984764 2.7961028
12.017262 -18.99597 2.8024607
14.074027 -19.115335 2.7652771
14.122873 -19.126446 2.7742946
14.176261 -19.126381 2.7853997
14.22884 -19.134932 2.7741525
14.273974 -19.138723 2.7769737
14.320641 -19.140774 2.7811141
14.369896 -19.143654 2.7906299
14.413978 -19.142805 2.8000851
14.460503 -19.131372 2.7992105
10.870947 -18.880291 2.7620425
10.924259 -18.884092 2.7694037
10.9799 -18.88685 2.7875013
11.019059 -18.886906 2.8024306
11.829344 -18.946075 2.7884228
11.864986 -18.948694 2.7998304
14.088158 -19.070415 2.7583437
14.128572 -19.075106 2.7671733
14.174479 -19.073872 2.7722869
14.219694 -19.075842 2.7786996
14.274141 -19.084 2.7778702
14.323536 -19.088955 2.7791109
14.371331 -19.093271 2.7901602
14.418663 -19.097139 2.7948675
14.470063 -19.097269 2.7900603
14.514 -19.086878 2.8016925
10.896446 -18.833988 2.7610509
10.927859 -18.826862 2.7686193
10.980595 -18.821033 2.7942655
11.953971 -18.910051 2.7997167
14.181619 -19.030722 2.7632229
14.230706 -19.033789 2.7692149
14.278953 -19.038919 2.7747328
14.326713 -19.041183 2.7824991
14.375327 -19.043278 2.7907064
14.417302 -19.046186 2.7979782
14.462439 -19.04011 2.8018153
10.981836 -18.788759 2.7818339
11.016423 -18.789238 2.8065
14.138377 -18.974964 2.7608809
14.180651 -18.974398 2.7682002
14.23085 -18.979019 2.7761903
14.279937 -18.988464 2.7815304
14.328446 -18.994843 2.7831545
14.378142 -18.992767 2.7892246
14.426072 -18.991663 2.7981546
14.473722 -18.984537 2.8017473
14.153513 -18.932215 2.7590463
14.189816 -18.936106 2.7677879
14.23475 -18.93091 2.7773376
14.282495 -18.938107 2.7832196
14.328078 -18.942822 2.7824652
14.378295 -18.942892 2.7867694
14.427039 -18.94087 2.7981689
14.47401 -18.928835 2.797127
14.091608 -18.886469 2.7677016
14.143058 -18.875311 2.7699473
14.18717 -18.874287 2.7708457
14.235487 -18.876381 2.7745457
14.285197 -18.885088 2.7805023
14.331656 -18.890774 2.7873774
14.382928 -18.895098 2.7876277
14.429349 -18.893898 2.7959442
14.479334 -18.891285 2.8007684
14.517775 -18.88055 2.8076022
14.091008 -18.812786 2.7640064
14.148545 -18.821972 2.7692051
14.191398 -18.82843 2.7685709
14.240491 -18.830172 2.7780473
14.287301 -18.834894 2.7875917
14.337319 -18.845369 2.7895639
14.384665 -18.850128 2.7827942
14.435476 -18.840925 2.7958744
14.480241 -18.830486 2.8007305
14.106735 -18.750683 2.7641182
14.149647 -18.774227 2.764858
14.199348 -18.779825 2.7718062
14.244459 -18.780806 2.7786794
14.291346 -18.786495 2.7857051
14.336155 -18.7899 2.7920105
14.384075 -18.793915 2.7914255
14.437516 -18.78447 2.7875016
14.487837 -18.777958 2.7906022
14.156507 -18.729879 2.765918
14.197408 -18.730072 2.7708745
14.245407 -18.733231 2.7812557
14.293914 -18.736959 2.7906253
14.339764 -18.74229 2.7904415
14.394073 -18.746792 2.7945583
14.43773 -18.745512 2.8000019
14.491458 -18.754732 2.7866371
14.543731 -18.754612 2.7946444
14.581511 -18.74584 2.8076489
14.054924 -18.669254 2.7641976
14.105782 -18.667774 2.7783823
14.155316 -18.675449 2.7701838
14.197309 -18.680494 2.7696056
14.246429 -18.681072 2.7809567
14.295439 -18.686525 2.794343
14.343427 -18.694422 2.7866611
14.395927 -18.687269 2.7827568
14.439655 -18.682598 2.7921202
14.484529 -18.675632 2.8023758
14.157358 -18.62698 2.7635171
14.202989 -18.629274 2.7700193
14.251734 -18.634569 2.780617
14.300911 -18.640612 2.7925463
14.349219 -18.642698 2.791944
14.390572 -18.646212 2.7900915
14.453933 -18.654812 2.7939749
14.485606 -18.658329 2.8031621
10.417187 -18.330208 2.7649035
10.461923 -18.340179 2.7674282
10.636983 -18.338409 2.780437
10.709145 -18.367079 2.8001463
10.762121 -18.359522 2.8065972
14.005224 -18.569485 2.7624552
14.04784 -18.569155 2.7773736
14.101066 -18.574934 2.7818649
14.154838 -18.573488 2.7739303
14.205834 -18.579407 2.7701342
14.254809 -18.585318 2.7800498
14.304474 -18.587891 2.7899814
14.348668 -18.591217 2.7944906
14.402391 -18.592386 2.7856643
14.455591 -18.582067 2.7913811
14.490664 -18.589857 2.8013637
10.409744 -18.311897 2.7607095
10.62309 -18.31761 2.7917969
10.664792 -18.315397 2.796345
10.707458 -18.313828 2.7990143
10.761719 -18.326689 2.7984855
14.066278 -18.497103 2.7588575
14.163103 -18.518419 2.764497
14.213812 -18.531326 2.7693391
14.257311 -18.534582 2.778163
14.304973 -18.538494 2.7875128
14.352658 -18.540386 2.7920754
14.402205 -18.538797 2.7895989
14.449677 -18.534735 2.800971
14.502747 -18.568083 2.8004987
14.079002 -18.48251 2.7638586
14.11195 -18.482613 2.7742808
14.164215 -18.48048 2.7732041
14.210678 -18.481533 2.7750728
14.259489 -18.482454 2.7812366
14.306965 -18.485874 2.7908642
14.356421 -18.489771 2.7998829
14.413349 -18.513693 2.7908297
14.455534 -18.510811 2.7773759
14.513425 -18.498549 2.7880762
14.560226 -18.486921 2.8035393
14.119212 -18.430254 2.7625659
14.170238 -18.430136 2.7691081
14.217773 -18.42927 2.7741385
14.265662 -18.433716 2.7798984
14.312734 -18.436453 2.7889926
14.357752 -18.44379 2.7901144
14.409784 -18.4338 2.7851775
14.466776 -18.434078 2.7942555
14.081781 -18.36561 2.7606609
14.123905 -18.368729 2.7693741
14.170783 -18.374338 2.7722843
14.219627 -18.375912 2.7779853
14.267204 -18.381613 2.7775862
14.314306 -18.383074 2.7917013
14.360385 -18.390415 2.7994034
14.405251 -18.405884 2.8036425
14.463726 -18.412825 2.7848024
14.50995 -18.402372 2.799783
14.541673 -18.393503 2.8072872
14.129522 -18.311232 2.7586091
14.173246 -18.32951 2.7638373
14.221103 -18.331043 2.7729568
14.269576 -18.332764 2.7803915
14.314231 -18.335609 2.7873888
14.365619 -18.339943 2.7967486
14.410915 -18.3375 2.7903686
14.468649 -18.345903 2.7768507
14.523976 -18.33317 2.7933824
13.463065 -18.216051 2.7879202
14.038468 -18.269039 2.7621205
14.080421 -18.267538 2.7759767
14.12652 -18.279978 2.7693219
14.171318 -18.276119 2.771997
14.22355 -18.277569 2.7763932
14.270734 -18.281076 2.7813926
14.322047 -18.286039 2.7874157
14.368256 -18.294058 2.794122
14.409824 -18.290911 2.7922907
14.45255 -18.295784 2.7962317
14.561401 -18.323776 2.8061635
12.026449 -18.090359 2.7750349
12.072521 -18.103247 2.776376
12.123183 -18.113785 2.8005147
13.44773 -18.20034 2.7824152
13.46874 -18.1877 2.7881672
14.13273 -18.20096 2.7600856
14.176836 -18.227282 2.7650409
14.225812 -18.229982 2.7752469
14.276044 -18.240362 2.7805476
14.324151 -18.237535 2.7879941
14.37047 -18.239603 2.7933693
14.421546 -18.241224 2.7945874
14.48047 -18.257484 2.7831066
14.520834 -18.246691 2.7942684
14.564798 -18.230604 2.7956619
12.002149 -18.03549 2.7584438
12.040868 -18.051634 2.7684124
12.083815 -18.054272 2.7782986
12.131171 -18.054083 2.7890928
12.165558 -18.052845 2.7926435
14.092011 -18.18202 2.7600341
14.131447 -18.172556 2.7666323
14.177978 -18.176844 2.7748172
14.231055 -18.179199 2.7822101
14.278399 -18.186771 2.7836404
14.325678 -18.182859 2.7862968
14.372099 -18.191158 2.7978828
14.420137 -18.198694 2.7946365
14.457917 -18.19993 2.8007526
14.593287 -18.224251 2.8030722
14.153709 -18.125198 2.7591813
14.185804 -18.128181 2.7661977
14.23325 -18.127623 2.777854
14.280599 -18.136639 2.7846389
14.328138 -18.138296 2.7905324
14.378224 -18.143831 2.7982392
14.431302 -18.145281 2.7865357
14.092375 -18.07049 2.7612486
14.136776 -18.074183 2.7672145
14.182669 -18.07538 2.7759559
14.233564 -18.07976 2.7819591
14.285049 -18.091093 2.7849374
14.335545 -18.086376 2.7903111
14.38456 -18.096708 2.7980943
14.429262 -18.097263 2.7916675
14.489625 -18.109436 2.7762077
14.535734 -18.098356 2.7907186
14.563783 -18.091511 2.7995157
14.1923 -18.042992 2.76561
14.235535 -18.045111 2.7783043
14.291892 -18.047548 2.7826595
14.339192 -18.049749 2.7870555
14.381852 -18.047934 2.7947018
14.429323 -18.040817 2.8031609
10.227362 -20.335978 2.8387868
10.193151 -20.305836 2.8553708
10.235628 -20.293152 2.8378887
10.22831 -20.261646 2.8561652
10.692346 -20.255787 2.8152246
10.912152 -20.267445 2.8147862
10.947281 -20.265707 2.8215957
10.999656 -20.264835 2.8242435
11.024375 -20.282421 2.8490651
10.65286 -20.231848 2.8147449
10.951713 -20.239502 2.814898
11.002363 -20.237329 2.8332634
11.0301 -20.248796 2.8514473
10.761997 -20.194616 2.8132839
10.904657 -20.186319 2.8474529
10.951699 -20.189823 2.8323264
10.994301 -20.18926 2.8420708
10.950828 -20.134739 2.8246944
10.99959 -20.145794 2.8343954
10.971308 -20.085558 2.8161635
11.011859 -20.074692 2.8302813
11.052832 -20.066269 2.851048
10.956482 -20.045536 2.83144
11.012268 -20.037264 2.8255305
11.043291 -20.046862 2.8365903
11.101945 -20.055141 2.8470743
10.963271 -19.976688 2.8120835
11.015189 -19.987535 2.8246186
11.067235 -19.993221 2.8327582
11.106159 -19.993534 2.8415763
13.46428 -20.116627 2.8462605
13.706578 -20.141184 2.8481476
13.751945 -20.141317 2.8573766
11.037711 -19.9634 2.8206236
11.075139 -19.964994 2.8426864
13.457199 -20.096745 2.8177533
13.505617 -20.090641 2.8326354
13.544588 -20.094353 2.838484
14.380287 -20.125662 2.8090277
14.398433 -20.121647 2.8157935
13.429087 -20.028948 2.8225884
13.466671 -20.032078 2.8354785
13.499617 -20.052208 2.8509989
14.271931 -20.076658 2.8264639
14.313486 -20.077293 2.8194208
14.363571 -20.084812 2.8210266
14.411784 -20.090727 2.8317091
14.461813 -20.09181 2.8466871
14.503379 -20.088224 2.8534715
14.557155 -20.088043 2.8568764
13.430395 -19.997993 2.8239262
13.465732 -19.991919 2.8252521
13.497499 -19.994383 2.8276486
14.26179 -20.027222 2.8127744
14.325915 -20.041752 2.8221912
14.36719 -20.037588 2.82057
14.413591 -20.045322 2.8348036
14.460166 -20.046839 2.8434548
14.509745 -20.047169 2.8464282
14.557191 -20.035908 2.851764
14.169416 -19.977081 2.8197253
14.221431 -19.973036 2.8344018
14.274316 -19.984066 2.8378587
14.320699 -20.001677 2.8241067
14.369283 -19.991512 2.8212726
14.417171 -19.993992 2.8291433
14.466712 -19.999552 2.8406446
14.510406 -20.004356 2.8470504
14.558417 -19.994823 2.8498831
14.268682 -19.949291 2.8131151
14.323672 -19.948284 2.8184233
14.372131 -19.937668 2.8216479
14.418903 -19.942404 2.8319676
14.471344 -19.953165 2.8420112
14.519203 -19.954077 2.8460786
14.57324 -19.948215 2.8535953
14.17803 -19.877607 2.8176491
14.230693 -19.8731 2.8320477
14.28243 -19.868774 2.8470893
14.334694 -19.895811 2.8174198
14.376799 -19.894732 2.8201025
14.426272 -19.900778 2.8318427
14.471106 -19.903395 2.8417029
14.51572 -19.902027 2.8457594
14.568869 -19.904745 2.8492317
14.60807 -19.915977 2.8533268
14.224474 -19.824108 2.8174136
14.276488 -19.834732 2.825891
14.32636 -19.847075 2.8265357
14.379457 -19.841455 2.8217745
14.426033 -19.846846 2.8315024
14.474059 -19.852913 2.8410313
14.522029 -19.851967 2.8420122
14.574182 -19.85611 2.8480115
14.605633 -19.842493 2.8579893
14.150372 -19.781996 2.8089964
14.189322 -19.774189 2.818856
14.232685 -19.770144 2.831485
14.281065 -19.769831 2.8498302
14.33302 -19.7834 2.8284264
14.377865 -19.789917 2.8188035
14.429257 -19.797894 2.8289487
14.478456 -19.79981 2.8389053
14.522541 -19.790504 2.838402
14.577135 -19.804672 2.8423779
14.627583 -19.815393 2.8441265
14.655628 -19.80818 2.8525207
14.198741 -19.732422 2.8129148
14.235479 -19.737015 2.8254874
14.282454 -19.736637 2.8393552
14.334505 -19.741817 2.8346379
14.386774 -19.747702 2.8211315
14.432818 -19.751902 2.8318048
14.480505 -19.752649 2.8361218
14.532635 -19.75234 2.8437088
14.5797 -19.758411 2.8472056
14.631994 -19.762442 2.8534698
14.191481 -19.683369 2.8142667
14.237614 -19.684572 2.8243091
14.284157 -19.68714 2.8372111
14.337253 -19.691576 2.8341756
14.386836 -19.692118 2.821661
14.436444 -19.695745 2.8313682
14.48346 -19.700474 2.8375282
14.532287 -19.702581 2.8390565
14.581415 -19.705107 2.8480651
14.637656 -19.712175 2.8516464
12.537954 -19.529392 2.8452122
14.197895 -19.641689 2.8124523
14.237738 -19.632044 2.8231595
14.288672 -19.641422 2.8351898
14.339918 -19.647335 2.836144
14.389271 -19.64324 2.821533
14.438421 -19.651022 2.828697
14.490814 -19.652666 2.8375242
14.534611 -19.649351 2.8442833
14.580372 -19.652954 2.8506448
11.551468 -19.402197 2.8297257
11.592362 -19.399307 2.8375084
11.687679 -19.441727 2.8566506
11.941544 -19.425896 2.8338697
14.205908 -19.569807 2.8137629
14.246345 -19.578445 2.8200843
14.294433 -19.589901 2.8346105
14.346716 -19.587584 2.8446207
14.397756 -19.590252 2.8170538
14.444203 -19.598413 2.8289058
14.48927 -19.600767 2.8352296
14.53656 -19.603745 2.8410859
14.591603 -19.609474 2.8472416
14.636953 -19.592323 2.8504519
11.568743 -19.374166 2.8278568
11.590128 -19.384892 2.847687
11.662664 -19.379593 2.8518856
11.872608 -19.382074 2.8107119
11.906136 -19.380789 2.8284376
11.956905 -19.391653 2.8266528
11.993822 -19.38632 2.8571436
12.041422 -19.377367 2.8511226
14.205974 -19.515343 2.8111258
14.245751 -19.53371 2.8189583
14.295071 -19.545294 2.8306999
14.345436 -19.540813 2.8356292
14.400801 -19.545511 2.8227999
14.445708 -19.550659 2.8262835
14.493375 -19.548609 2.8382092
14.538773 -19.550215 2.8430321
14.591292 -19.560766 2.8519588
11.612503 -19.326649 2.839437
12.003889 -19.355141 2.8283412
12.05776 -19.361818 2.8362834
12.088999 -19.344065 2.8451529
12.157312 -19.357607 2.8382771
12.192916 -19.365728 2.8522067
12.311617 -19.369576 2.8427339
12.348685 -19.355705 2.8527892
14.205253 -19.479061 2.8140063
14.25209 -19.482533 2.8224897
14.296927 -19.483809 2.8386118
14.347374 -19.493517 2.8407216
14.397869 -19.492126 2.8186269
14.447115 -19.498028 2.8267679
14.496425 -19.497183 2.8386443
14.546613 -19.502466 2.846009
14.588367 -19.510626 2.8463023
14.64835 -19.504061 2.8452735
14.686514 -19.495094 2.8552425
11.977258 -19.290535 2.8358774
12.015661 -19.305281 2.8323488
12.064549 -19.296099 2.8430839
12.100819 -19.293901 2.8447428
12.154462 -19.303144 2.8446031
12.201838 -19.301218 2.8489504
12.257897 -19.304052 2.8450551
12.295709 -19.328423 2.8485296
12.335211 -19.328367 2.8449228
12.418236 -19.325214 2.8579922
12.461191 -19.330542 2.8552446
12.501963 -19.314232 2.8577838
14.215458 -19.435892 2.8126054
14.250275 -19.432831 2.8220263
14.303541 -19.428879 2.8366191
14.354726 -19.442934 2.8241868
14.403179 -19.444445 2.8225946
14.453235 -19.446352 2.8300111
14.500026 -19.447042 2.8427894
14.549214 -19.449293 2.8465984
14.597748 -19.439363 2.8383868
14.631371 -19.43334 2.8299618
11.930011 -19.218884 2.8189931
11.96666 -19.232656 2.8323884
12.007255 -19.242922 2.8351383
12.059574 -19.269173 2.8512583
12.110317 -19.257069 2.8413386
12.157921 -19.25173 2.8432369
12.202127 -19.237238 2.8482707
12.262953 -19.278099 2.8314738
12.321489 -19.269569 2.839354
12.360142 -19.267588 2.847682
12.407927 -19.266134 2.8533089
12.444334 -19.263193 2.8575935
12.508202 -19.258617 2.8565292
12.543507 -19.255955 2.8577147
14.218456 -19.366419 2.8119366
14.257035 -19.371428 2.8223858
14.301337 -19.367632 2.8377311
14.357702 -19.39415 2.8257859
14.411425 -19.39492 2.8180954
14.456569 -19.396692 2.8291748
14.503063 -19.396845 2.8394904
14.546055 -19.398516 2.8510466
14.597388 -19.38677 2.8527088
14.660342 -19.424942 2.8428674
14.689827 -19.4174 2.8531251
11.931865 -19.208614 2.8539636
11.947454 -19.186932 2.817493
12.010448 -19.193487 2.8321168
12.045135 -19.210188 2.8415656
12.221578 -19.195286 2.8513546
12.321341 -19.204481 2.8567026
12.369211 -19.209646 2.8446846
12.415606 -19.208771 2.8500733
14.275902 -19.32266 2.8119228
14.314888 -19.329506 2.8234525
14.357394 -19.346901 2.834115
14.413157 -19.345112 2.8188303
14.457909 -19.34486 2.8279815
14.505541 -19.349176 2.8395696
14.550553 -19.35034 2.8457518
14.594318 -19.349783 2.853503
10.856595 -19.052452 2.8244901
10.970744 -19.070494 2.8175845
11.011039 -19.067522 2.8371718
11.972819 -19.154318 2.8303788
12.005688 -19.145115 2.8344769
12.33852 -19.160601 2.8527021
12.367597 -19.186419 2.8550782
12.422686 -19.183523 2.8509245
12.459195 -19.180962 2.8550749
14.26696 -19.276796 2.8125074
14.312843 -19.274618 2.8187389
14.363963 -19.290079 2.8331664
14.414808 -19.291912 2.8239458
14.460561 -19.295563 2.824851
14.510485 -19.298796 2.8385205
14.555086 -19.300562 2.84656
14.601107 -19.302456 2.8429518
14.647698 -19.306725 2.8476946
10.791277 -19.006205 2.8263743
10.828522 -19.003008 2.8323882
10.873158 -19.025553 2.8239889
10.924432 -19.031105 2.8334877
10.967655 -19.021694 2.8328722
11.021152 -19.025045 2.8374333
11.926596 -19.077036 2.8326266
11.972857 -19.092358 2.8329189
12.008315 -19.093201 2.8345854
12.36772 -19.138384 2.8534713
12.394653 -19.1367 2.8542786
12.535376 -19.120546 2.857044
14.275473 -19.25396 2.8138206
14.32331 -19.249895 2.8208163
14.368932 -19.245466 2.8266637
14.414527 -19.244423 2.8245344
14.463382 -19.244841 2.8297935
14.514131 -19.250174 2.8379781
14.558199 -19.251469 2.8488555
14.608539 -19.259987 2.8537109
14.644957 -19.27669 2.8554251
10.832455 -18.966707 2.8127074
10.876784 -18.983112 2.8242075
10.922321 -18.98173 2.8283453
10.970578 -18.99144 2.8305695
11.019079 -18.991749 2.8464403
11.939031 -19.022455 2.8345661
11.978007 -19.043682 2.8359346
12.013492 -19.049303 2.8278601
12.06174 -19.036295 2.8363099
12.436217 -19.070753 2.854991
12.464042 -19.074198 2.8526793
14.229098 -19.173395 2.8147793
14.264043 -19.171047 2.8249533
14.316567 -19.174318 2.8262465
14.368759 -19.194479 2.8200433
14.422117 -19.194281 2.8236661
14.468039 -19.196617 2.827666
14.516721 -19.200684 2.8371522
14.561567 -19.20085 2.8433013
14.609277 -19.202127 2.8471146
10.977268 -18.938957 2.8212848
11.022664 -18.931549 2.8418682
11.77554 -18.973579 2.8408868
11.834184 -18.971581 2.8090119
11.884125 -18.980125 2.8279707
11.92709 -18.979525 2.8455493
11.963401 -18.991037 2.8484063
12.008775 -19.015768 2.8354828
12.06353 -19.023134 2.8561907
12.121649 -18.986078 2.8347247
12.22205 -19.032753 2.8586807
12.375026 -19.021643 2.8499339
12.409606 -19.018517 2.8561516
12.58235 -19.015324 2.8563228
14.275378 -19.14085 2.8149004
14.321939 -19.139103 2.8259099
14.367773 -19.145153 2.8305228
14.420862 -19.143518 2.8256917
14.467612 -19.143919 2.8280668
14.515367 -19.146963 2.8398182
14.564921 -19.149555 2.850904
14.622802 -19.175907 2.8463836
14.66633 -19.175419 2.8549364
11.03319 -18.881891 2.822962
11.070783 -18.86549 2.8395374
11.780638 -18.957079 2.8191407
11.823775 -18.947121 2.8352821
11.887283 -18.95097 2.82127
11.929121 -18.952206 2.8205526
11.973551 -18.954239 2.8364942
12.024683 -18.941971 2.8509135
12.08307 -18.937199 2.8491454
12.117449 -18.936012 2.840621
14.238442 -19.090202 2.81604
14.271873 -19.103321 2.8288541
14.314405 -19.081682 2.8263655
14.375542 -19.100969 2.820878
14.427593 -19.096764 2.8225389
14.474275 -19.097012 2.8303404
14.522528 -19.100895 2.8364413
14.570546 -19.107298 2.8477826
14.621523 -19.097725 2.8518274
10.988961 -18.831087 2.8236606
11.028553 -18.822565 2.8251207
11.073477 -18.817583 2.8387372
11.923863 -18.880919 2.8532636
11.957396 -18.902802 2.8305621
12.082628 -18.916206 2.8484204
12.135949 -18.916258 2.8514898
12.188072 -18.910786 2.8557413
12.330722 -18.922632 2.8479385
12.388939 -18.918245 2.8565304
12.493065 -18.929779 2.8366783
14.278102 -19.057564 2.8231752
14.333099 -19.048723 2.8247206
14.37627 -19.045898 2.8260324
14.428108 -19.041042 2.8267746
14.474992 -19.044247 2.8299847
14.525429 -19.051582 2.8384163
14.571634 -19.056522 2.8489015
14.622097 -19.059233 2.8425565
14.666557 -19.058712 2.8555663
11.042145 -18.790579 2.8208234
11.067397 -18.791979 2.8343768
14.298244 -18.968548 2.8107295
14.332303 -18.972855 2.8160634
14.383291 -18.989208 2.8187404
14.430814 -18.996214 2.8277035
14.477227 -18.996319 2.8337688
14.525701 -19.002724 2.8413136
14.571804 -19.007788 2.8499894
14.611106 -19.017183 2.8522096
14.297424 -18.943705 2.8100717
14.336062 -18.937925 2.8173754
14.383298 -18.941681 2.8280809
14.43508 -18.945581 2.8335304
14.480307 -18.943151 2.8302476
14.531033 -18.953766 2.8393574
14.575902 -18.957376 2.8487227
14.62424 -18.95785 2.8540668
14.228802 -18.881161 2.8156586
14.285183 -18.874937 2.8226762
14.340866 -18.882919 2.8233638
14.386574 -18.894268 2.8212373
14.437991 -18.896265 2.8331001
14.485411 -18.897627 2.8360691
14.534007 -18.909575 2.8375747
14.581305 -18.906004 2.8478844
14.626092 -18.904135 2.8507118
11.54806 -18.685652 2.8454728
14.303765 -18.845558 2.8107765
14.343313 -18.840073 2.8190382
14.389888 -18.842157 2.8267856
14.437597 -18.844839 2.8380709
14.486471 -18.846081 2.838486
14.535138 -18.854567 2.8402784
14.586338 -18.861504 2.8427711
14.628132 -18.855751 2.8512895
14.25442 -18.798359 2.8159034
14.297317 -18.791128 2.8191614
14.344731 -18.793427 2.8198144
14.391507 -18.79137 2.8273251
14.439153 -18.794464 2.8364697
14.487566 -18.797287 2.8417799
14.541503 -18.805511 2.8402946
14.593337 -18.815708 2.8474107
14.631403 -18.801657 2.854702
14.262018 -18.745205 2.8095412
14.29794 -18.741545 2.8145113
14.345475 -18.740505 2.8188012
14.393053 -18.742355 2.8298163
14.44382 -18.742523 2.8364968
14.492815 -18.748365 2.8364079
14.54057 -18.751011 2.8399417
14.594332 -18.75762 2.8384023
14.636921 -18.74798 2.8431075
14.209002 -18.666466 2.8121631
14.244209 -18.665859 2.8217189
14.305967 -18.678196 2.8221054
14.350056 -18.687735 2.8190317
14.39749 -18.695423 2.8298852
14.446546 -18.693363 2.8419137
14.494409 -18.702223 2.8426776
14.538899 -18.707912 2.8375161
14.58633 -18.714573 2.8449116
14.643998 -18.716459 2.8410921
14.696122 -18.720125 2.8420358
14.733884 -18.709976 2.8571563
10.920847 -18.41156 2.8441358
10.944972 -18.410036 2.847636
14.314198 -18.638178 2.8133302
14.354025 -18.640442 2.8184268
14.401179 -18.643202 2.8280094
14.448261 -18.641867 2.8405719
14.497053 -18.645939 2.8407991
14.551378 -18.651987 2.8308771
14.601002 -18.650116 2.8451908
14.640256 -18.643538 2.8525317
10.815025 -18.352169 2.816246
10.857624 -18.368708 2.844111
10.911789 -18.373386 2.8380113
10.967055 -18.380365 2.8482745
14.167189 -18.567568 2.8114336
14.202111 -18.567484 2.8220599
14.257627 -18.569771 2.8279605
14.307625 -18.581102 2.8290942
14.357533 -18.586155 2.8199108
14.404329 -18.592003 2.8285708
14.452538 -18.591597 2.8425717
14.499222 -18.598314 2.8456392
14.544058 -18.603203 2.8449252
14.599522 -18.620197 2.8425417
14.637441 -18.61385 2.8548267
10.67869 -18.303694 2.810802
10.713467 -18.300179 2.8181622
10.752812 -18.298939 2.8158565
10.814413 -18.32164 2.8094537
10.865862 -18.326149 2.8223953
10.906324 -18.333731 2.8393033
10.952131 -18.325169 2.8410017
14.319905 -18.535568 2.8100708
14.362163 -18.539755 2.819654
14.407247 -18.543554 2.8278258
14.456293 -18.545202 2.8383408
14.504636 -18.550442 2.8377213
14.551237 -18.555717 2.8362396
14.605067 -18.550426 2.8391993
14.647689 -18.546047 2.848938
10.781814 -18.282131 2.8221982
10.815207 -18.281555 2.8282299
10.865173 -18.275867 2.8370788
10.915508 -18.270126 2.8439076
10.961552 -18.285395 2.8413396
11.004905 -18.300476 2.8534057
14.212461 -18.499081 2.8114681
14.261474 -18.483938 2.8199632
14.315133 -18.484377 2.8199966
14.361487 -18.487917 2.8243508
14.411275 -18.493851 2.8282318
14.460377 -18.499264 2.8377991
14.504601 -18.499512 2.841363
14.558743 -18.501387 2.8409257
14.600218 -18.504124 2.8401732
14.646984 -18.505861 2.8569007
10.977197 -18.246204 2.8481944
10.997169 -18.235249 2.8575256
14.263702 -18.410133 2.8146024
14.313142 -18.440374 2.8139963
14.36872 -18.44149 2.8184903
14.411891 -18.443745 2.8300393
14.457344 -18.445679 2.837471
14.507909 -18.445814 2.8455968
14.546556 -18.456865 2.8535938
14.612128 -18.472403 2.8373954
14.665115 -18.46088 2.8358171
14.711149 -18.449127 2.8499124
10.957685 -18.20009 2.8540056
14.240768 -18.3612 2.8103714
14.266022 -18.361942 2.8175101
14.321524 -18.384462 2.8231041
14.368849 -18.391897 2.8254693
14.415319 -18.396418 2.8275442
14.465231 -18.398033 2.8392167
14.515765 -18.401848 2.8427961
14.560262 -18.403997 2.8366804
14.60623 -18.394156 2.8371899
14.663837 -18.39691 2.8514707
14.322009 -18.342031 2.8178525
14.370235 -18.342581 2.8253689
14.419373 -18.34544 2.8278399
14.466722 -18.34552 2.8379998
14.516115 -18.344877 2.8489494
14.549647 -18.338913 2.8548381
14.627514 -18.374426 2.8358152
14.661707 -18.367373 2.847065
14.702179 -18.355919 2.8507571
13.437856 -18.223822 2.8320086
13.469403 -18.221165 2.8342297
14.219501 -18.262819 2.8176038
14.274775 -18.279116 2.8229172
14.325829 -18.288176 2.8192987
14.375308 -18.294031 2.8251119
14.423449 -18.297804 2.8287215
14.472481 -18.298685 2.8355978
14.520401 -18.299519 2.8445425
14.564876 -18.301374 2.8452585
14.614882 -18.303282 2.8324349
14.675956 -18.294937 2.8428886
14.711514 -18.286369 2.8525748
12.089009 -18.085064 2.8215945
12.132777 -18.091888 2.8394909
12.17724 -18.109776 2.8388791
12.204747 -18.107641 2.8571079
13.444083 -18.18017 2.8136637
13.475342 -18.189438 2.817605
14.291771 -18.244249 2.810415
14.329816 -18.245539 2.8199816
14.377357 -18.241379 2.8254879
14.424878 -18.243273 2.8319943
14.471144 -18.239889 2.8380535
14.524724 -18.251337 2.8433506
14.567534 -18.254126 2.8462555
14.620078 -18.239582 2.8411267
12.099421 -18.027004 2.8139315
12.141575 -18.065315 2.8195717
12.181042 -18.056089 2.8307827
12.217341 -18.051561 2.8406401
14.241171 -18.193371 2.8077705
14.279043 -18.178926 2.8182986
14.330941 -18.191422 2.8197923
14.380231 -18.194117 2.8248329
14.426963 -18.194857 2.8317571
14.477309 -18.195747 2.8357339
14.52576 -18.199442 2.8430328
14.559503 -18.203924 2.8521581
14.631126 -18.214928 2.8148522
14.672333 -18.212332 2.8373077
14.715647 -18.192957 2.8428555
12.1361 -18.023659 2.8386056
12.194512 -18.028152 2.8239808
12.232553 -18.024025 2.84624
14.291388 -18.142986 2.815243
14.33529 -18.143757 2.8198528
14.382406 -18.144108 2.8288603
14.431559 -18.13987 2.8330798
14.478948 -18.146236 2.8370628
14.527495 -18.145267 2.8453858
14.572636 -18.161985 2.8492241
14.617609 -18.1602 2.8538749
14.745315 -18.18524 2.8522465
14.244257 -18.073305 2.8239081
14.287268 -18.078627 2.8246706
14.334424 -18.091301 2.8197877
14.38552 -18.091167 2.8274472
14.435225 -18.093941 2.8352396
14.48171 -18.095125 2.8365915
14.531631 -18.099874 2.8463175
14.577794 -18.097389 2.8413267
14.295568 -18.056797 2.8247786
14.339037 -18.052662 2.8282702
14.384458 -18.049036 2.8323793
14.434915 -18.044785 2.8329749
14.480755 -18.050003 2.8354731
14.53646 -18.050131 2.8474438
14.573451 -18.029659 2.8570981
14.640058 -18.070868 2.8277345
14.686639 -18.060266 2.8387578
14.724524 -18.050449 2.850498
14.502739 -18.017208 2.8415608
14.538694 -18.010323 2.8505177
14.567285 -18.003773 2.8499472
10.235128 -20.335001 2.8864512
10.189805 -20.305321 2.8945529
10.244104 -20.293531 2.8853509
10.990527 -20.31208 2.9025967
10.211945 -20.260836 2.872716
10.227293 -20.257299 2.8977468
10.966887 -20.281237 2.8677692
11.003299 -20.282074 2.8879163
11.030929 -20.280458 2.880497
10.957086 -20.211344 2.8932655
11.009813 -20.225475 2.8810608
11.030492 -20.247631 2.8876538
10.999759 -20.18993 2.8829398
11.50073 -20.223452 2.9001923
11.552558 -20.222195 2.9012301
11.604534 -20.228559 2.9034948
11.640937 -20.242899 2.9062548
11.672607 -20.241884 2.9079709
11.005865 -20.138191 2.8863339
11.449616 -20.153162 2.8960714
11.513129 -20.149242 2.9011996
11.5527 -20.157475 2.9004376
11.597162 -20.162451 2.8984482
11.659281 -20.159815 2.8985682
11.705832 -20.162842 2.903939
11.735551 -20.164772 2.9071717
11.000045 -20.094257 2.8823376
11.450596 -20.133511 2.9051187
11.492309 -20.138912 2.9034812
11.551232 -20.141829 2.8995507
11.604564 -20.143017 2.8980653
11.650904 -20.142914 2.9030786
11.703883 -20.139553 2.9052927
11.734252 -20.139059 2.9086542
11.062385 -20.043398 2.8858414
11.101387 -20.05887 2.8850944
11.156235 -20.063763 2.9077935
11.185502 -20.051622 2.8988435
11.52177 -20.066229 2.9088409
11.556643 -20.076509 2.9003084
11.601058 -20.067793 2.9054646
11.662218 -20.05497 2.9077148
11.072718 -19.977615 2.8800886
11.116319 -19.990185 2.881649
11.163364 -19.990238 2.8917272
11.212235 -19.985579 2.8946478
11.531475 -20.035048 2.8978796
11.564411 -20.018681 2.8953459
11.605948 -20.026396 2.8975394
11.655913 -20.018749 2.9007394
11.700898 -20.020599 2.9059372
11.747871 -20.022978 2.9092252
13.667033 -20.150232 2.8929129
13.694802 -20.146875 2.9001396
13.773406 -20.141251 2.8653035
13.78596 -20.144176 2.8783946
11.120216 -19.965591 2.8841088
11.173373 -19.968431 2.9012215
13.71344 -20.087749 2.8756452
13.752699 -20.093088 2.8839722
11.162265 -19.914507 2.8977375
13.718226 -20.075871 2.8848805
13.756522 -20.072195 2.8996851
14.460186 -20.101957 2.8702049
14.512568 -20.092039 2.8659108
14.559336 -20.091652 2.8755596
14.611618 -20.090221 2.894691
14.639052 -20.092335 2.9069245
14.437182 -20.06851 2.8635328
14.471164 -20.060812 2.8666723
14.51643 -20.052494 2.8780606
14.56354 -20.056965 2.8845894
14.611656 -20.06151 2.8939803
14.655756 -20.067015 2.9019334
14.701717 -20.067259 2.9060271
14.316971 -19.966173 2.865731
14.428228 -19.999666 2.8637342
14.469918 -19.999521 2.8726277
14.519369 -20.001369 2.8702557
14.567898 -20.007946 2.8843875
14.615672 -20.008976 2.8908939
14.663093 -20.011353 2.898088
14.714503 -20.004219 2.9016328
14.34403 -19.964384 2.8759949
14.370841 -19.962545 2.8847296
14.421778 -19.954029 2.8872213
14.476751 -19.9438 2.8753927
14.525015 -19.950964 2.8695998
14.568663 -19.955946 2.8795037
14.617142 -19.960409 2.8899705
14.661317 -19.961779 2.8955152
14.718087 -19.95879 2.8958209
14.758574 -19.954523 2.9057448
14.489203 -19.905941 2.8633752
14.525854 -19.900955 2.8688991
14.573491 -19.905037 2.8825355
14.622286 -19.909328 2.8920999
14.672529 -19.910439 2.8942871
14.718991 -19.903145 2.9013917
14.33585 -19.864412 2.8637242
14.371343 -19.861523 2.8736422
14.427579 -19.855541 2.8790569
14.481116 -19.849033 2.8833058
14.529712 -19.848953 2.8698833
14.578379 -19.852152 2.880708
14.62493 -19.858549 2.8890588
14.672347 -19.855797 2.8948212
14.72495 -19.852076 2.9013965
14.76997 -19.875698 2.900291
14.33629 -19.789644 2.8627472
14.383011 -19.810484 2.8747766
14.427777 -19.806679 2.8888788
14.487802 -19.802565 2.8727529
14.529984 -19.802233 2.869137
14.577781 -19.805061 2.8794913
14.627005 -19.811226 2.8961623
14.674631 -19.81262 2.8900535
14.723728 -19.804613 2.891958
14.759528 -19.811789 2.9045849
14.343362 -19.764111 2.8654814
14.378916 -19.744055 2.8728719
14.4307 -19.741343 2.890523
14.482988 -19.752016 2.8772209
14.53571 -19.751598 2.8694651
14.584253 -19.753769 2.8796785
14.631571 -19.754023 2.8876007
14.678189 -19.754629 2.8914022
14.728167 -19.768742 2.8906062
14.780977 -19.774195 2.8919892
14.810788 -19.765549 2.9022729
11.683377 -19.519627 2.9012918
14.351064 -19.688499 2.8619349
14.388514 -19.69112 2.8715925
14.436629 -19.698124 2.8859456
14.486447 -19.694773 2.883791
14.535841 -19.697258 2.8716667
14.585403 -19.707657 2.8821452
14.63227 -19.707876 2.8852532
14.683558 -19.713413 2.8904421
14.729698 -19.723154 2.8991089
14.777725 -19.733009 2.9049358
11.744851 -19.480112 2.8882461
11.784211 -19.489168 2.9060168
12.510135 -19.514822 2.8709018
12.546934 -19.523954 2.8893895
12.643368 -19.540691 2.9053435
14.350944 -19.639164 2.8626709
14.394322 -19.643064 2.8709297
14.441278 -19.64769 2.8813469
14.487231 -19.650669 2.8879738
14.54109 -19.65238 2.8770244
14.590252 -19.657244 2.8783453
14.637292 -19.653385 2.8858297
14.682608 -19.656176 2.8948476
14.733426 -19.668859 2.895165
14.781455 -19.676292 2.9021258
11.565018 -19.420784 2.8720386
11.602516 -19.414135 2.8827584
11.655394 -19.408854 2.8989375
11.711318 -19.42169 2.8791409
11.744137 -19.431942 2.8834519
11.785378 -19.437712 2.8938448
11.83717 -19.439646 2.9090505
11.905025 -19.432913 2.9007285
11.955984 -19.431599 2.8834283
11.986153 -19.429655 2.8921649
12.21386 -19.436388 2.8965802
12.539194 -19.496662 2.8771727
12.585843 -19.498363 2.8943579
14.359258 -19.613409 2.858902
14.393872 -19.595629 2.8677995
14.438112 -19.592722 2.8795867
14.490797 -19.598135 2.8894823
14.545395 -19.601652 2.867332
14.592075 -19.601646 2.8777993
14.640787 -19.606293 2.8829229
14.685739 -19.613031 2.8929496
14.735479 -19.61331 2.9025629
11.606447 -19.375177 2.8779018
11.644334 -19.380127 2.8858731
11.692702 -19.378883 2.8939657
11.748149 -19.383705 2.8814292
11.916827 -19.385515 2.8840101
11.957593 -19.383942 2.8789294
11.99022 -19.400246 2.8889849
12.053519 -19.411015 2.8870797
12.101019 -19.399097 2.8844786
12.152266 -19.403542 2.8789039
12.209605 -19.406345 2.8825371
12.31027 -19.405817 2.908973
12.430945 -19.422108 2.8999977
14.358143 -19.552288 2.8633244
14.39506 -19.547825 2.8706491
14.443336 -19.547918 2.8828743
14.493524 -19.547844 2.8941216
14.547791 -19.550751 2.8707926
14.596523 -19.550091 2.8787169
14.642276 -19.559216 2.8860271
14.692942 -19.567209 2.8902786
14.739764 -19.564144 2.896193
14.78229 -19.550003 2.9045563
11.612082 -19.322237 2.8744023
11.647806 -19.318743 2.8909304
11.960583 -19.357235 2.9068046
12.005503 -19.347651 2.8902216
12.048968 -19.34589 2.8884726
12.092237 -19.35675 2.8889089
12.156482 -19.353792 2.8846104
12.204671 -19.369223 2.8931472
12.247194 -19.358925 2.8945801
12.295196 -19.356279 2.8932292
12.350968 -19.361099 2.8844047
12.399798 -19.359764 2.8713591
12.454479 -19.358362 2.8888826
12.494341 -19.364578 2.8967907
14.358012 -19.481855 2.8641968
14.401165 -19.489325 2.8743982
14.451542 -19.494955 2.8875411
14.506303 -19.498812 2.8871601
14.553686 -19.500671 2.8709738
14.59656 -19.4998 2.8749497
14.645869 -19.509556 2.8875308
14.692775 -19.511934 2.895937
14.742957 -19.509865 2.9020586
11.680042 -19.290878 2.9049356
11.969531 -19.300337 2.8673024
12.006877 -19.302523 2.8812826
12.0344 -19.289927 2.8917668
12.114662 -19.295929 2.8681693
12.164569 -19.295732 2.8809471
12.209559 -19.293209 2.880352
12.262063 -19.289751 2.8898237
12.300347 -19.313719 2.8808918
12.362637 -19.33102 2.8763983
12.403616 -19.324732 2.8842852
12.45486 -19.327026 2.8843131
12.503843 -19.3344 2.8874803
12.55514 -19.330887 2.8871224
12.603088 -19.333822 2.8886704
12.650272 -19.32526 2.8987939
12.691171 -19.320827 2.8998547
12.862388 -19.360441 2.8786144
12.886868 -19.356541 2.9000914
14.358558 -19.435654 2.859865
14.398449 -19.444405 2.8679512
14.453081 -19.447035 2.88604
14.508883 -19.446358 2.8807836
14.553183 -19.451059 2.8703787
14.600636 -19.454088 2.8766909
14.649617 -19.463156 2.8916767
14.697754 -19.467442 2.8984466
14.739757 -19.474133 2.8931422
14.797996 -19.463871 2.9007049
11.984392 -19.230177 2.8609197
12.009966 -19.242764 2.8817794
12.066298 -19.238644 2.8639488
12.106192 -19.246162 2.8713219
12.163927 -19.248829 2.8725173
12.204351 -19.252726 2.8789716
12.260753 -19.25563 2.8834395
12.307571 -19.274431 2.8886707
12.357242 -19.270098 2.8834059
12.409667 -19.272345 2.8685162
12.4658 -19.266207 2.8742552
12.512737 -19.281445 2.889555
12.559833 -19.280888 2.8968501
12.609244 -19.279774 2.9016595
12.655586 -19.284885 2.8998809
12.703336 -19.285652 2.8962417
12.752945 -19.291777 2.8965235
12.808257 -19.299326 2.8921483
12.854614 -19.299917 2.8907936
12.901933 -19.298401 2.8971791
12.955314 -19.292845 2.9056299
14.409433 -19.407312 2.8664753
14.462027 -19.398779 2.8739846
14.507027 -19.401178 2.8772874
14.558468 -19.403616 2.8725433
14.604406 -19.404661 2.8789661
14.652218 -19.413877 2.891062
14.697541 -19.412622 2.8942878
14.752831 -19.410112 2.889106
14.786322 -19.393377 2.8832827
12.016299 -19.195608 2.8822412
12.057254 -19.211664 2.8822558
12.106846 -19.218876 2.8971009
12.160393 -19.21559 2.8894644
12.216498 -19.208609 2.8876176
12.261901 -19.213442 2.8846011
12.309454 -19.208315 2.8852446
12.370666 -19.210993 2.8995452
12.413194 -19.225739 2.8864388
12.459016 -19.221411 2.8881927
12.511242 -19.218475 2.8880844
12.563513 -19.218983 2.885828
12.604911 -19.244049 2.8832765
12.6599 -19.227156 2.8945222
12.713042 -19.226137 2.8958206
12.751945 -19.233044 2.8874547
12.805308 -19.242247 2.8750098
12.864668 -19.243889 2.8737879
12.913655 -19.244307 2.8783035
12.962291 -19.241169 2.8855333
13.008181 -19.238625 2.8953822
14.370035 -19.362083 2.8638294
14.403888 -19.359234 2.8672409
14.457736 -19.352825 2.8804803
14.509742 -19.343086 2.8773994
14.560509 -19.351246 2.8693824
14.60828 -19.35651 2.8751135
14.65517 -19.359924 2.8887336
14.698443 -19.36627 2.9001579
14.748211 -19.366852 2.902415
14.816775 -19.385818 2.8922083
14.846896 -19.378294 2.9009516
11.034403 -19.06353 2.8710256
11.968196 -19.148653 2.8890071
12.011541 -19.149117 2.8843894
12.206284 -19.181459 2.8964477
12.269954 -19.144014 2.9058752
12.317165 -19.16065 2.8797359
12.371338 -19.16099 2.8884127
12.418772 -19.156555 2.8891959
12.463979 -19.175547 2.8830552
12.511948 -19.176662 2.8805487
12.563716 -19.180387 2.8910556
12.610429 -19.197538 2.8944921
12.66398 -19.195257 2.8961987
12.716653 -19.190737 2.900315
12.763486 -19.193436 2.9028742
12.805309 -19.200535 2.9048769
13.052795 -19.235456 2.9079132
14.418507 -19.288977 2.8620934
14.452304 -19.300772 2.8693302
14.510238 -19.298115 2.8821871
14.566112 -19.306387 2.8714902
14.610533 -19.309916 2.8776698
14.659046 -19.310553 2.8895409
14.705777 -19.317095 2.8956738
14.749013 -19.313927 2.9025304
10.975357 -19.03619 2.8592477
11.033164 -19.032301 2.8815587
11.048762 -19.027807 2.8921621
11.932595 -19.069189 2.8617346
11.975857 -19.089725 2.880491
12.015644 -19.09758 2.8832779
12.064122 -19.089685 2.8937788
12.165365 -19.089556 2.9058416
12.195058 -19.09437 2.9035215
12.265632 -19.104477 2.9016409
12.322948 -19.120226 2.875855
12.372804 -19.127995 2.8821104
12.423641 -19.131056 2.8834193
12.473104 -19.126169 2.8753197
12.513641 -19.131115 2.8867302
12.565557 -19.135611 2.8789842
12.61657 -19.139845 2.8823383
12.667747 -19.138397 2.8885245
12.714976 -19.137909 2.8955483
12.756237 -19.134144 2.9035907
12.794214 -19.15519 2.9085896
12.919107 -19.144863 2.9048073
12.966935 -19.157082 2.9040139
13.008327 -19.15126 2.9085164
14.428092 -19.244249 2.8604474
14.470057 -19.257208 2.8708541
14.515704 -19.250364 2.8796642
14.567147 -19.256807 2.8738966
14.613194 -19.258921 2.8762598
14.663421 -19.261568 2.8880467
14.70943 -19.263765 2.8980813
14.760809 -19.267445 2.8920083
14.803088 -19.263584 2.9039798
11.037529 -18.992094 2.8745255
11.056721 -18.992947 2.8887556
11.627449 -19.005737 2.8993201
11.935256 -19.059916 2.8797648
11.987922 -19.039085 2.8775353
12.018368 -19.047552 2.8839662
12.069438 -19.038048 2.8794429
12.115061 -19.040533 2.875011
12.179863 -19.042753 2.8831377
12.209854 -19.074829 2.8627014
12.270863 -19.086123 2.8982069
12.330858 -19.04834 2.9011452
12.367075 -19.064436 2.882513
12.422014 -19.071323 2.8957982
12.470355 -19.075642 2.8937175
12.518349 -19.082872 2.8927317
12.561293 -19.092426 2.8966148
12.616858 -19.089935 2.8987038
12.665791 -19.096016 2.9006376
12.72473 -19.100023 2.9023948
12.771645 -19.096247 2.9033034
12.825499 -19.094328 2.8986816
12.866545 -19.092813 2.9056437
12.908924 -19.089943 2.9079814
14.46986 -19.198248 2.8674095
14.524505 -19.19935 2.8667722
14.569836 -19.20714 2.8726506
14.616014 -19.206198 2.8786557
14.66449 -19.207615 2.890137
14.709689 -19.21483 2.8976114
14.751715 -19.20154 2.905189
11.017223 -18.941404 2.8632646
11.056782 -18.936737 2.8828738
11.635537 -18.967001 2.8918469
11.679109 -18.963711 2.8918796
11.720964 -18.96232 2.8917806
11.780836 -18.971441 2.8827846
11.833696 -18.967287 2.8754377
11.87923 -18.976597 2.8795335
11.932171 -18.999134 2.8711293
11.973148 -18.994299 2.8801944
12.01569 -18.985767 2.8904266
12.075276 -19.006533 2.8830357
12.119739 -19.008545 2.8955536
12.179315 -19.024399 2.8859806
12.222332 -19.023579 2.8937817
12.270039 -19.026241 2.8897045
12.317224 -19.018595 2.8911893
12.364403 -19.02099 2.891824
12.423919 -19.012007 2.8846936
12.477026 -19.01992 2.8784156
12.524501 -19.029762 2.8960767
12.579614 -19.02734 2.8920517
12.628545 -19.018034 2.8813801
12.674196 -19.022587 2.884095
12.711695 -19.022108 2.9016955
12.876403 -19.056299 2.8940427
12.916186 -19.05555 2.9075789
14.380153 -19.164007 2.8624148
14.421279 -19.149691 2.867044
14.468797 -19.149414 2.8757792
14.523291 -19.147964 2.8789752
14.570536 -19.154091 2.8726547
14.619673 -19.158697 2.8785341
14.667711 -19.161844 2.8894126
14.716022 -19.167324 2.8930383
14.763309 -19.160212 2.8981881
11.031746 -18.882225 2.8704395
11.060465 -18.910517 2.8627608
11.63322 -18.94359 2.9049184
11.673754 -18.933062 2.8990159
11.730073 -18.937532 2.8815212
11.775917 -18.937134 2.8799725
11.823294 -18.933765 2.8839638
11.877325 -18.93833 2.8741903
11.927935 -18.945549 2.8813038
11.98373 -18.948488 2.8752294
12.024497 -18.950783 2.8881242
12.075097 -18.955902 2.8928151
12.119052 -18.957747 2.8916216
12.165546 -18.964363 2.8884976
12.214445 -18.957163 2.8972216
12.276645 -18.941847 2.8968933
12.400313 -18.959101 2.9035802
12.442449 -18.978025 2.90306
12.478699 -18.98012 2.9001482
12.529313 -18.980442 2.8962853
12.582511 -18.982153 2.8912864
12.620938 -18.987762 2.8969028
12.684667 -18.993429 2.889369
12.7237 -18.99707 2.8936572
12.772536 -18.997808 2.8918319
12.83191 -19.005215 2.8957984
12.875953 -19.003569 2.9005749
14.379245 -19.098188 2.8629997
14.428384 -19.102844 2.8775599
14.479086 -19.10564 2.8854356
14.526453 -19.109432 2.8703532
14.575277 -19.108622 2.8772449
14.622603 -19.109882 2.8809946
14.671872 -19.109295 2.8874629
14.716928 -19.110226 2.8998985
14.764412 -19.104399 2.9077518
14.813763 -19.142355 2.9064536
11.830614 -18.906471 2.8885715
11.858608 -18.902946 2.908612
11.939658 -18.897163 2.880708
11.978917 -18.897678 2.8719192
12.031338 -18.898319 2.8860471
12.075134 -18.892515 2.8923376
12.125995 -18.891665 2.8796718
12.236369 -18.903172 2.8858953
12.282088 -18.903564 2.8901329
12.331744 -18.916508 2.8897474
12.380758 -18.920935 2.8923404
12.431881 -18.923109 2.8827295
12.483305 -18.921646 2.8799999
12.523298 -18.922691 2.8716738
12.578319 -18.931799 2.8686996
12.63642 -18.929365 2.8743081
12.688707 -18.926138 2.8861713
12.731303 -18.924923 2.8942716
12.783003 -18.925266 2.8934474
12.830513 -18.935867 2.8803959
12.870329 -18.940052 2.8714049
14.436108 -19.052612 2.8635085
14.479237 -19.046951 2.8745801
14.526163 -19.041298 2.8761349
14.577579 -19.054365 2.8758147
14.626857 -19.060526 2.8780694
14.675891 -19.060232 2.888968
14.721127 -19.062727 2.8950737
14.76481 -19.066769 2.8972728
12.098105 -18.874578 2.8798318
12.178561 -18.854107 2.9052989
12.338753 -18.864321 2.891679
12.378447 -18.877411 2.8894928
12.436023 -18.8766 2.8932958
12.478411 -18.874626 2.8915219
12.527551 -18.87221 2.8889339
12.577922 -18.904341 2.8775885
12.632412 -18.8997 2.8890333
12.687953 -18.895216 2.8978019
12.721521 -18.89263 2.9016113
12.789736 -18.898077 2.9020741
12.827947 -18.909533 2.899147
12.874085 -18.910522 2.9003749
12.924725 -18.916012 2.9002712
12.967726 -18.913689 2.9047766
14.49222 -19.004953 2.8624201
14.53295 -18.998579 2.8681703
14.580872 -19.004602 2.8766062
14.627831 -19.00934 2.8824089
14.677695 -19.007853 2.8880856
14.728243 -19.011272 2.8994958
14.770118 -19.019136 2.9011843
14.82279 -19.029959 2.9040411
12.139652 -18.814379 2.9043057
12.175043 -18.822565 2.8946476
12.439603 -18.809923 2.8919132
12.476361 -18.814301 2.894115
12.530348 -18.813478 2.903157
12.697892 -18.838608 2.9009135
12.742193 -18.835346 2.8987236
12.785431 -18.834999 2.9029043
14.482081 -18.949039 2.8655732
14.534793 -18.949114 2.878881
14.585119 -18.95565 2.8802345
14.63195 -18.963238 2.8824399
14.680475 -18.957256 2.8894134
14.728888 -18.962425 2.9021122
14.764397 -18.946686 2.9016151
11.562698 -18.715702 2.8727257
11.58877 -18.730028 2.8736134
11.63693 -18.728527 2.890512
11.690571 -18.72863 2.900419
12.188904 -18.776054 2.8988101
12.488074 -18.776716 2.8787067
12.514704 -18.795504 2.8895612
14.390048 -18.875719 2.865314
14.436172 -18.875057 2.8820453
14.492499 -18.893761 2.8721657
14.53857 -18.899168 2.8698926
14.58624 -18.907253 2.8806143
14.634867 -18.906494 2.8809485
14.683374 -18.902594 2.8897951
14.733247 -18.913692 2.8975074
14.784853 -18.924761 2.8949869
14.815588 -18.917086 2.9079249
11.56516 -18.683073 2.8643835
11.60622 -18.686417 2.8757432
11.647237 -18.689783 2.8866427
11.690601 -18.694315 2.8943355
12.412287 -18.71711 2.9028909
12.45272 -18.7339 2.8737214
12.507607 -18.748432 2.8940511
14.448729 -18.85581 2.8624015
14.487937 -18.844292 2.8679855
14.539171 -18.848904 2.8761957
14.587358 -18.853395 2.8834546
14.635843 -18.855917 2.8882568
14.685649 -18.858355 2.886533
14.733645 -18.867029 2.8967302
14.784431 -18.864498 2.8998933
12.487347 -18.696548 2.9026766
14.407681 -18.786043 2.8645921
14.446467 -18.784529 2.873373
14.494728 -18.795959 2.8706446
14.542798 -18.799826 2.8760669
14.589683 -18.805134 2.8875659
14.640521 -18.805635 2.8860414
14.688834 -18.806095 2.8876815
14.735347 -18.814953 2.892035
14.78569 -18.822071 2.8960109
14.406464 -18.743919 2.8616493
14.451428 -18.745586 2.8678458
14.499554 -18.743893 2.8713992
14.545619 -18.752178 2.8775811
14.593452 -18.755093 2.8864572
14.640536 -18.755367 2.8906612
14.692966 -18.76107 2.8928068
14.738833 -18.769615 2.8932114
14.780248 -18.773216 2.9026532
14.361239 -18.665993 2.8607004
14.463216 -18.699366 2.8617666
14.500429 -18.698832 2.8672805
14.546773 -18.703985 2.8785148
14.595669 -18.705597 2.8886435
14.645018 -18.705811 2.8893597
14.694693 -18.706751 2.8936031
14.740848 -18.710936 2.8942056
14.793644 -18.715712 2.8917003
10.993934 -18.420031 2.8722918
14.406122 -18.666462 2.8761959
14.450426 -18.652761 2.8714173
14.503458 -18.652189 2.8706307
14.54983 -18.652758 2.8799534
14.599391 -18.654781 2.8935759
14.646842 -18.656004 2.8923602
14.698095 -18.655041 2.8887436
14.745885 -18.664549 2.8993032
14.799769 -18.680326 2.89518
14.845107 -18.681953 2.89432
14.876294 -18.674202 2.9038987
10.982009 -18.36677 2.8682475
11.010556 -18.384018 2.883095
14.327948 -18.568602 2.863332
14.355298 -18.569752 2.8759956
14.398777 -18.570366 2.8892965
14.453115 -18.579508 2.8762102
14.505719 -18.596478 2.8665247
14.554796 -18.603735 2.8775756
14.601069 -18.605234 2.8874023
14.652489 -18.6082 2.8898225
14.703403 -18.612537 2.8799877
14.751934 -18.609207 2.8921118
14.785436 -18.599119 2.9048777
10.934149 -18.343416 2.862541
10.968356 -18.337688 2.8679805
11.004512 -18.335415 2.877013
14.414248 -18.563477 2.86186
14.457163 -18.547853 2.8663716
14.507722 -18.550434 2.8700075
14.557732 -18.553905 2.8786526
14.604833 -18.556833 2.8893447
14.652431 -18.553547 2.8947132
14.69254 -18.552053 2.8881254
14.792088 -18.587778 2.9021525
10.972235 -18.277279 2.8765607
11.02057 -18.293514 2.8913999
14.383689 -18.501734 2.862947
14.409932 -18.485432 2.8709738
14.463784 -18.494057 2.8744297
14.512087 -18.500839 2.8727171
14.559534 -18.503714 2.8769641
14.607449 -18.502598 2.8882184
14.656648 -18.502851 2.8900528
14.708569 -18.519341 2.882057
14.757708 -18.515968 2.8882365
14.801538 -18.509766 2.8978534
14.839927 -18.500938 2.907305
10.984524 -18.242231 2.8791499
11.014293 -18.239424 2.8874915
14.472091 -18.449034 2.8628314
14.517377 -18.448032 2.8718951
14.566122 -18.450394 2.8773623
14.61273 -18.454588 2.8896434
14.658936 -18.456411 2.8943129
14.708388 -18.464233 2.8943956
14.746949 -18.465439 2.8900228
10.985381 -18.197001 2.8830819
11.010394 -18.190899 2.8876297
11.755712 -18.206223 2.9053915
14.411947 -18.384569 2.8642631
14.467154 -18.398943 2.8730276
14.518778 -18.397448 2.8716486
14.565959 -18.401253 2.8764472
14.613044 -18.404249 2.8857033
14.661262 -18.407862 2.8958991
14.703206 -18.403715 2.8922904
14.770706 -18.43329 2.882031
14.811587 -18.420719 2.8859794
