# .PCD v0.7 - Point Cloud Data file format
VERSION 0.7
FIELDS x y z
SIZE 4 4 4
TYPE F F F
COUNT 1 1 1
WIDTH 1465
HEIGHT 1
VIEWPOINT 0 0 0 1 0 0 0
POINTS 1465
DATA ascii
14.920729 -26.108421 -0.58447009
13.119884 -25.929541 -0.57787132
13.149149 -25.92967 -0.5613935
13.188961 -25.948298 -0.5481838
13.704457 -25.98736 -0.58531058
14.020002 -25.987087 -0.5761826
14.044178 -25.988115 -0.55463022
14.751574 -26.0172 -0.55722523
14.790905 -26.043112 -0.56799972
14.842031 -26.049301 -0.57185
13.12209 -25.881519 -0.58223152
13.154002 -25.88168 -0.56057763
13.188739 -25.8762 -0.55336446
13.809398 -25.913519 -0.58051842
13.866953 -25.921886 -0.57754999
13.897235 -25.916546 -0.55144602
14.006741 -25.924871 -0.572698
14.035284 -25.951704 -0.56943876
14.718111 -25.972225 -0.54167306
14.750321 -25.979424 -0.55880624
14.793239 -25.981264 -0.55880922
14.83235 -25.987682 -0.57466203
13.119363 -25.810472 -0.58574098
13.156014 -25.83021 -0.56022316
13.201228 -25.83729 -0.56084394
13.846528 -25.894526 -0.57318968
13.883733 -25.894129 -0.55296314
13.958266 -25.898546 -0.5779807
14.01651 -25.902864 -0.56752652
14.042286 -25.883511 -0.54977995
14.763236 -25.936039 -0.54742914
14.799716 -25.943336 -0.55854088
14.844147 -25.929588 -0.56771189
13.019328 -25.765833 -0.56028628
13.074818 -25.756737 -0.56301683
13.11001 -25.782339 -0.5624631
13.155043 -25.783392 -0.55778104
13.775871 -25.820856 -0.57563895
13.80613 -25.819931 -0.56644869
13.910461 -25.80933 -0.5757814
13.936348 -25.805632 -0.56241655
14.021144 -25.838417 -0.57337159
14.0419 -25.836102 -0.55167663
14.7772 -25.870363 -0.55490071
14.806626 -25.878464 -0.57324797
14.851451 -25.875782 -0.55886906
14.903109 -25.872276 -0.58063972
13.026795 -25.737173 -0.55921167
13.043543 -25.745134 -0.56104356
13.779632 -25.782923 -0.57967907
13.819389 -25.782356 -0.56505615
13.857574 -25.774664 -0.56153941
13.903971 -25.765692 -0.55700964
13.958138 -25.797739 -0.56731045
14.021562 -25.777328 -0.57335126
14.047512 -25.784565 -0.54775822
14.773225 -25.828045 -0.55177546
14.814927 -25.830826 -0.56286907
14.853697 -25.827333 -0.56244016
14.915766 -25.835812 -0.58262682
14.936322 -25.833168 -0.58707458
15.021192 -25.830009 -0.58595878
15.036092 -25.834242 -0.58581626
13.253029 -25.692127 -0.58157718
13.365777 -25.68433 -0.56588662
13.433631 -25.677883 -0.54021859
13.802511 -25.724625 -0.57151878
13.861455 -25.74848 -0.57926595
13.90149 -25.751265 -0.57777518
14.025409 -25.731991 -0.57654732
14.050094 -25.742655 -0.55117321
14.773938 -25.764992 -0.55141854
14.820868 -25.793507 -0.55070668
14.859053 -25.792337 -0.566513
14.895544 -25.7932 -0.58252734
13.374734 -25.652086 -0.57114446
13.406418 -25.649927 -0.55068767
14.026589 -25.692701 -0.55287355
14.07338 -25.672401 -0.54844832
14.773635 -25.732405 -0.56197244
14.815413 -25.723185 -0.55660892
14.852386 -25.727808 -0.56919402
14.89831 -25.747458 -0.58292162
13.279103 -25.585091 -0.57776833
13.314116 -25.58882 -0.55679554
13.38026 -25.597187 -0.57078409
13.411179 -25.599867 -0.54951924
13.459714 -25.617435 -0.54758632
13.828919 -25.62051 -0.58166635
13.880205 -25.628351 -0.55399466
13.926041 -25.637516 -0.56779641
13.971054 -25.64521 -0.56388062
14.033379 -25.620062 -0.5791254
14.060568 -25.6255 -0.56133831
14.825365 -25.692978 -0.56354976
14.868287 -25.697945 -0.57098907
14.039689 -25.580986 -0.57855856
14.061607 -25.586386 -0.55276555
14.747107 -25.606989 -0.55023444
14.782232 -25.61652 -0.57466894
14.811421 -25.64386 -0.56535548
14.846818 -25.656776 -0.5780164
13.821053 -25.546556 -0.57689977
13.859796 -25.517256 -0.58001554
13.913448 -25.524551 -0.5755226
14.029426 -25.532627 -0.56635445
14.067449 -25.545918 -0.55242485
14.74329 -25.580091 -0.55030763
14.778657 -25.571659 -0.56106526
14.826182 -25.578606 -0.56550229
14.857593 -25.591862 -0.56580567
13.409754 -25.435419 -0.57443053
13.809471 -25.456669 -0.58295292
13.982161 -25.496141 -0.56857634
14.040251 -25.493465 -0.5756194
14.070612 -25.477575 -0.55666625
14.790146 -25.540352 -0.55102676
14.82396 -25.539837 -0.56414795
14.862293 -25.53668 -0.58083618
20.75156 -25.876564 -0.54327762
13.345159 -25.407934 -0.57367152
13.382574 -25.390823 -0.57517797
13.425384 -25.386864 -0.55259979
13.472828 -25.402824 -0.54159814
13.88525 -25.414358 -0.57531315
13.917665 -25.40823 -0.54761624
13.963812 -25.407055 -0.57672668
14.03469 -25.42635 -0.57212406
14.069313 -25.450253 -0.55865765
14.755641 -25.466816 -0.55404133
14.785307 -25.476612 -0.56279665
14.829881 -25.482948 -0.56550854
14.877418 -25.477278 -0.57983172
20.773733 -25.843262 -0.56190842
20.817135 -25.856293 -0.54526991
12.702308 -25.282057 -0.57083088
13.38137 -25.335392 -0.56500053
13.435112 -25.347036 -0.55501395
13.474917 -25.3379 -0.55849028
13.802298 -25.380379 -0.57951289
13.836215 -25.388624 -0.5713383
13.882971 -25.385281 -0.56346232
13.931324 -25.376984 -0.57160318
13.9894 -25.385452 -0.56479436
14.023942 -25.381819 -0.55712312
14.749228 -25.443346 -0.55018938
14.788859 -25.425282 -0.55414325
14.834389 -25.43244 -0.56431597
14.869372 -25.432966 -0.5812071
20.782459 -25.800875 -0.5595389
20.823071 -25.806978 -0.56563413
12.748279 -25.265404 -0.55451697
12.765252 -25.261835 -0.58426863
13.093493 -25.259686 -0.55899817
13.127527 -25.257683 -0.5810101
13.223226 -25.267418 -0.56394607
13.293656 -25.286526 -0.56788433
13.338305 -25.281759 -0.56462544
13.400293 -25.295397 -0.56296659
13.433963 -25.300432 -0.55137587
13.756808 -25.308342 -0.58306277
13.774624 -25.317297 -0.57858837
14.002725 -25.331018 -0.57200229
14.022871 -25.337328 -0.55594665
14.753084 -25.365286 -0.56064492
14.790948 -25.365032 -0.56090015
14.845994 -25.393372 -0.56963861
20.785442 -25.761398 -0.56502879
20.807571 -25.770945 -0.55790418
12.733534 -25.194433 -0.56290644
12.804217 -25.216763 -0.56491697
12.844155 -25.229048 -0.56029212
12.91079 -25.193895 -0.56053531
12.920342 -25.195879 -0.58425093
13.044857 -25.21328 -0.55964983
13.161283 -25.228262 -0.55053914
13.182414 -25.225445 -0.56919354
13.229492 -25.242085 -0.56142187
13.287752 -25.255873 -0.56250739
13.844444 -25.254925 -0.56972998
13.881868 -25.262064 -0.55222148
13.947943 -25.266035 -0.57423139
13.995807 -25.290192 -0.54499692
14.042226 -25.272808 -0.5531047
14.742702 -25.331644 -0.55813128
14.791957 -25.323355 -0.56134665
14.825908 -25.329872 -0.57116693
14.870258 -25.336611 -0.58625895
12.853537 -25.162834 -0.55357116
12.887936 -25.165148 -0.56304157
12.988832 -25.156927 -0.56198323
13.802944 -25.209206 -0.56769055
14.003697 -25.236019 -0.58300966
14.031729 -25.23337 -0.55629778
14.757824 -25.281084 -0.55338609
14.794428 -25.288748 -0.56646538
14.836064 -25.2875 -0.57343221
12.949148 -25.116776 -0.56132293
12.982714 -25.122881 -0.56244582
13.058387 -25.11949 -0.56314445
13.104738 -25.117445 -0.56279409
13.13142 -25.1103 -0.56097525
13.845284 -25.161366 -0.57270736
13.900009 -25.182074 -0.5649271
13.937735 -25.183102 -0.5406124
13.997182 -25.184639 -0.57087296
14.033693 -25.187403 -0.55721039
14.713087 -25.209953 -0.55193537
14.744083 -25.223326 -0.56762081
14.793851 -25.235027 -0.56857896
14.833991 -25.241644 -0.57176137
13.070211 -25.099092 -0.5510394
13.101892 -25.071905 -0.57345158
13.145247 -25.079903 -0.55738097
13.796025 -25.126497 -0.58419615
13.944803 -25.13522 -0.58296365
14.016172 -25.133675 -0.57665259
14.035935 -25.134264 -0.55181396
14.699691 -25.195255 -0.54047227
14.760813 -25.177137 -0.55784643
14.792934 -25.187132 -0.56039327
14.832133 -25.177591 -0.5779143
13.119219 -25.035358 -0.57563961
13.151704 -25.026217 -0.55832624
13.191977 -25.045874 -0.56305087
13.810367 -25.066236 -0.57379711
13.907322 -25.067869 -0.55700344
14.000265 -25.074657 -0.56265819
14.041728 -25.095083 -0.55165547
14.719312 -25.109375 -0.55126715
14.75324 -25.124104 -0.56108898
14.795065 -25.131084 -0.5519734
14.831673 -25.154009 -0.57884717
13.115304 -24.97183 -0.57287151
13.153955 -24.976959 -0.55679816
13.800109 -25.009249 -0.57577842
13.856399 -25.03801 -0.56096023
13.90163 -25.035019 -0.55041814
13.951396 -25.036297 -0.56700557
14.017224 -25.029697 -0.573623
14.038422 -25.029074 -0.5513857
14.770289 -25.080626 -0.55578554
14.802537 -25.081104 -0.56547242
14.844677 -25.091337 -0.58123243
13.121535 -24.927948 -0.57364172
13.153275 -24.931736 -0.55230337
13.775071 -24.964556 -0.58626431
13.828822 -24.953917 -0.56235349
13.978819 -24.956278 -0.58749259
14.019343 -24.990395 -0.57037205
14.045461 -24.999979 -0.54586887
14.768604 -25.023273 -0.56888795
14.805099 -25.035303 -0.55989492
14.859704 -25.037449 -0.58108008
23.194138 -25.533297 -0.55239022
23.23819 -25.540325 -0.57150817
13.082646 -24.877483 -0.58104622
13.118015 -24.882435 -0.5693289
13.157842 -24.879345 -0.55231732
13.201434 -24.886887 -0.55071288
13.831789 -24.916336 -0.57907856
13.864694 -24.915722 -0.55292797
13.914702 -24.921022 -0.56898618
13.95861 -24.926479 -0.54699206
14.030071 -24.932579 -0.56841797
14.767852 -24.980503 -0.55865645
14.812027 -24.977282 -0.56870353
14.856022 -24.994658 -0.57377571
23.209206 -25.501625 -0.54090524
23.221645 -25.518099 -0.56532049
13.080122 -24.822552 -0.57552785
13.114358 -24.82572 -0.56326115
13.157198 -24.829344 -0.55621958
13.815471 -24.875093 -0.57152319
13.864882 -24.88776 -0.55861431
13.922711 -24.899353 -0.56464607
14.02385 -24.878386 -0.56074142
14.047658 -24.881948 -0.54035288
14.770385 -24.917713 -0.5523963
14.819808 -24.938248 -0.56453741
14.85844 -24.940659 -0.58454037
23.162895 -25.437784 -0.55609208
13.082613 -24.772926 -0.57551724
13.117984 -24.77462 -0.55846179
13.160908 -24.772833 -0.54998809
13.820098 -24.826349 -0.56721067
14.021376 -24.837706 -0.56824565
14.046513 -24.838549 -0.54322493
14.728101 -24.86413 -0.54718864
14.766548 -24.87314 -0.56878459
14.820028 -24.873425 -0.54602885
14.863593 -24.877394 -0.58723027
23.149555 -25.393053 -0.56121564
23.184072 -25.398865 -0.54809403
13.084708 -24.722942 -0.57904822
13.115736 -24.729139 -0.55539268
13.160099 -24.746237 -0.54788315
13.772634 -24.763554 -0.57757801
13.809836 -24.775223 -0.55215633
13.854194 -24.781843 -0.57433331
13.941281 -24.766966 -0.58767754
13.974329 -24.79258 -0.57458031
14.007154 -24.786694 -0.55378717
14.728454 -24.840639 -0.55292016
14.775196 -24.828459 -0.55650002
14.812268 -24.83 -0.56104076
23.177362 -25.366997 -0.57233918
23.2183 -25.350971 -0.57367569
13.089195 -24.671848 -0.57724494
13.121198 -24.677927 -0.55765688
13.161855 -24.683594 -0.55317658
13.748161 -24.723885 -0.58279026
13.775364 -24.723372 -0.56895608
13.818042 -24.706926 -0.58087593
13.877755 -24.702286 -0.57330549
13.921828 -24.721941 -0.57737213
13.992571 -24.738464 -0.56992584
14.011182 -24.729404 -0.55480462
14.724981 -24.755079 -0.53888971
14.774144 -24.786608 -0.55021644
14.816259 -24.797787 -0.5729934
23.213629 -25.296753 -0.57164258
23.236603 -25.302685 -0.55058873
13.087055 -24.621222 -0.57094586
13.125654 -24.637403 -0.55730915
13.791867 -24.674816 -0.5725047
13.807927 -24.690041 -0.56594557
13.897182 -24.6985 -0.54239213
13.951915 -24.677691 -0.57806462
13.987828 -24.683441 -0.57384145
14.017832 -24.6761 -0.54865235
14.701659 -24.718731 -0.54923451
14.731925 -24.72928 -0.55993474
14.777547 -24.720501 -0.56144184
14.814187 -24.718618 -0.5757935
20.710985 -25.106859 -0.5849883
20.749758 -25.086735 -0.55957818
23.148445 -25.236967 -0.55941463
23.214548 -25.233511 -0.55948257
13.086888 -24.57542 -0.56782192
13.123577 -24.578711 -0.55025876
13.789498 -24.625425 -0.56596828
13.827758 -24.625164 -0.5579381
13.88694 -24.643047 -0.55592173
13.918425 -24.645903 -0.54500979
14.002998 -24.65029 -0.57296681
14.018908 -24.642328 -0.55822879
14.703074 -24.661493 -0.54306877
14.736914 -24.684006 -0.55588454
14.77799 -24.680597 -0.56042844
14.818457 -24.687172 -0.57101232
20.727188 -25.046783 -0.57688987
20.764183 -25.051819 -0.56308877
23.170025 -25.214296 -0.5701009
23.211899 -25.185772 -0.55150229
23.246529 -25.200123 -0.55897909
13.057011 -24.547659 -0.58601254
13.08952 -24.523357 -0.56609595
13.12782 -24.52387 -0.55292892
13.845675 -24.560398 -0.57921189
13.876469 -24.560987 -0.56169957
13.944046 -24.56711 -0.5692293
13.979161 -24.579916 -0.5633055
14.013732 -24.57976 -0.54870337
14.703063 -24.64817 -0.54375315
14.744069 -24.625658 -0.55961639
14.777611 -24.628777 -0.55917245
14.8193 -24.62677 -0.57798159
20.682034 -24.989201 -0.57028759
20.723248 -24.998827 -0.56179196
20.778145 -24.997387 -0.56559104
23.174995 -25.144472 -0.56781602
23.215668 -25.136398 -0.56797475
12.190678 -24.410263 -0.57554364
12.233977 -24.406372 -0.5709554
12.291363 -24.410728 -0.57975131
12.341913 -24.41288 -0.5691449
12.389852 -24.428469 -0.5541302
12.436944 -24.426216 -0.5591048
12.492183 -24.422089 -0.57031721
13.088337 -24.475203 -0.57173258
13.123253 -24.477587 -0.54591221
13.793126 -24.53927 -0.5743686
13.827613 -24.536221 -0.55363935
13.990882 -24.5287 -0.56736094
14.019541 -24.531986 -0.5460093
14.744847 -24.575449 -0.55101407
14.784699 -24.587173 -0.55941647
14.816444 -24.588593 -0.578026
20.681606 -24.938282 -0.56281394
20.72304 -24.959177 -0.5580284
20.767807 -24.942926 -0.55199301
23.14485 -25.074928 -0.58631581
23.16754 -25.082113 -0.56221122
23.217178 -25.101107 -0.54759741
12.253658 -24.398478 -0.56402165
12.291739 -24.385649 -0.57033795
12.340898 -24.37837 -0.57894999
12.382475 -24.392288 -0.58248341
12.428534 -24.396954 -0.58165264
12.490523 -24.396437 -0.57781577
12.540418 -24.403982 -0.56246859
12.590504 -24.404249 -0.56406665
12.635822 -24.402807 -0.57566404
13.096966 -24.426565 -0.56865215
13.129849 -24.425417 -0.54685521
13.178125 -24.410131 -0.54373741
13.734234 -24.489607 -0.58614278
13.786481 -24.466562 -0.55887222
13.895996 -24.456848 -0.57565814
13.934521 -24.453279 -0.57190013
13.9989 -24.489742 -0.5688206
14.709721 -24.507416 -0.5476833
14.741463 -24.517227 -0.56847578
14.784715 -24.525036 -0.5630846
14.836977 -24.534668 -0.57397479
20.682074 -24.891798 -0.55041963
20.751551 -24.898678 -0.54275995
23.154045 -25.061966 -0.58865488
13.055119 -24.384247 -0.56773311
13.099915 -24.384882 -0.57094175
13.130782 -24.38483 -0.54730147
13.816856 -24.439983 -0.58353561
13.843113 -24.414654 -0.56225365
13.90035 -24.423811 -0.57353145
13.945724 -24.44511 -0.55899537
14.001165 -24.427149 -0.56664824
14.031682 -24.421129 -0.54652244
14.702589 -24.494541 -0.55753881
14.744349 -24.472679 -0.55258638
14.789822 -24.479805 -0.56857479
14.828661 -24.482134 -0.57967615
13.772675 -24.377361 -0.58253008
13.865608 -24.349649 -0.5770731
14.007835 -24.382437 -0.5706445
14.03029 -24.382545 -0.54771668
14.703532 -24.406536 -0.55129451
14.743171 -24.420984 -0.56831276
14.799292 -24.431786 -0.56534195
14.830709 -24.436466 -0.58140385
13.810884 -24.319647 -0.56965464
13.893355 -24.337305 -0.55312216
13.956536 -24.330833 -0.56377882
14.000421 -24.33016 -0.56172538
14.709017 -24.388548 -0.56811976
14.757684 -24.36974 -0.55970788
14.78679 -24.379669 -0.56248301
13.77581 -24.2635 -0.56762946
13.790306 -24.271818 -0.57001305
14.008129 -24.283081 -0.564821
14.031507 -24.277266 -0.54147023
14.717151 -24.309721 -0.54774296
14.749773 -24.327402 -0.55555004
14.792807 -24.329924 -0.56911224
14.833735 -24.307188 -0.58793944
13.80983 -24.195349 -0.56862289
13.879563 -24.214746 -0.57814789
13.918655 -24.210129 -0.56476015
13.964711 -24.224646 -0.58196145
13.996847 -24.236448 -0.56337601
14.715943 -24.27495 -0.56510371
14.759671 -24.275455 -0.56189573
14.798281 -24.273424 -0.56051677
14.841838 -24.273901 -0.58303243
13.770633 -24.182034 -0.58772761
13.825772 -24.183773 -0.56022829
13.869991 -24.189018 -0.57227391
13.905123 -24.189377 -0.57147348
13.96258 -24.177696 -0.56562781
14.002865 -24.17622 -0.56157744
14.034295 -24.174044 -0.54938245
14.728116 -24.219299 -0.54834688
14.75269 -24.235313 -0.55359203
14.798738 -24.234983 -0.57345921
18.365847 -24.425739 -0.55587763
18.394722 -24.433798 -0.55458164
13.762378 -24.123583 -0.57923472
13.78933 -24.13093 -0.5667696
13.982217 -24.126249 -0.58525848
14.009005 -24.134621 -0.55583048
14.717287 -24.167387 -0.56182319
14.763091 -24.16272 -0.56012177
14.8058 -24.164581 -0.5674237
18.357422 -24.421808 -0.54717875
18.400269 -24.399073 -0.54456854
13.780679 -24.085114 -0.57633042
13.814594 -24.050154 -0.57773095
13.845701 -24.067669 -0.55497289
13.910248 -24.063745 -0.5685395
13.974485 -24.093735 -0.56207913
14.005294 -24.073359 -0.57187128
14.718528 -24.132156 -0.55934715
14.764118 -24.127508 -0.55643076
14.802598 -24.124683 -0.57347769
18.392475 -24.354839 -0.5436576
13.803431 -24.039183 -0.57949656
14.015179 -24.02688 -0.56303447
14.73452 -24.066639 -0.56279981
14.768145 -24.083412 -0.56391948
14.806787 -24.085083 -0.57635492
18.305361 -24.290594 -0.54425478
18.380926 -24.315411 -0.54787326
18.394316 -24.28669 -0.55623609
20.352375 -24.428127 -0.54656553
13.99408 -23.986567 -0.57707614
14.023314 -23.999123 -0.55071765
14.718413 -24.023342 -0.55831671
14.773075 -24.016262 -0.55787659
14.807368 -24.028963 -0.56183749
18.308569 -24.26145 -0.55138785
18.347763 -24.261351 -0.55064672
18.396183 -24.238176 -0.55836362
13.83484 -23.923351 -0.57951033
13.876163 -23.932796 -0.57864201
14.029508 -23.928013 -0.57065684
14.069283 -23.938334 -0.55276626
14.737153 -23.992434 -0.54704225
14.77256 -23.984465 -0.55821431
14.808014 -23.983486 -0.57682508
18.37735 -24.208134 -0.56532472
14.766892 -23.939018 -0.55228126
14.820283 -23.946579 -0.58169627
20.368134 -24.248446 -0.55891132
20.419426 -24.270134 -0.56323612
20.390724 -24.206591 -0.5577879
20.410301 -24.234409 -0.56419718
20.452496 -24.233425 -0.55921203
20.386284 -24.170357 -0.56621003
20.406902 -24.173716 -0.56178534
20.38909 -24.133902 -0.55084044
20.423368 -24.121765 -0.55712819
20.462845 -24.102697 -0.57074881
20.393068 -24.076324 -0.57300013
20.422966 -24.06489 -0.56489331
20.4657 -24.086954 -0.5642857
20.390085 -24.022844 -0.56639725
20.419292 -24.011612 -0.56506544
20.380831 -23.968866 -0.5666039
20.420887 -23.983341 -0.55499375
20.343287 -23.925732 -0.56849837
20.376476 -23.922083 -0.56867278
20.419558 -23.911966 -0.56532454
23.116413 -24.079315 -0.54393536
20.372341 -23.896248 -0.55515993
23.132622 -23.976542 -0.56227571
23.137451 -23.952581 -0.55149966
23.128551 -23.905624 -0.55207253
13.179374 -26.47681 -0.52112114
13.203986 -26.482189 -0.50052208
13.179961 -26.434517 -0.52264285
13.2068 -26.431156 -0.50131118
13.254782 -26.417252 -0.49303406
13.185563 -26.384905 -0.52629662
13.211968 -26.387133 -0.49965677
13.91591 -26.435934 -0.52612478
14.032026 -26.420822 -0.53371632
14.053396 -26.42775 -0.51553226
14.735836 -26.482092 -0.50417799
13.185576 -26.332663 -0.5195182
13.215056 -26.334717 -0.49977157
14.045894 -26.372419 -0.52143037
14.066143 -26.393538 -0.50336528
14.68069 -26.414715 -0.4998318
14.725889 -26.417612 -0.51349175
14.769405 -26.425707 -0.51071048
13.187005 -26.283159 -0.51879507
13.215652 -26.286261 -0.50182378
14.034936 -26.345697 -0.50910175
14.074311 -26.327087 -0.49189928
14.580419 -26.374315 -0.49411964
14.60947 -26.380001 -0.49345025
14.688138 -26.394022 -0.51257801
14.725917 -26.373747 -0.51395845
14.776723 -26.382925 -0.5261302
14.812054 -26.378353 -0.51632774
13.18951 -26.23135 -0.52227354
13.214399 -26.237762 -0.49738324
13.90944 -26.289795 -0.53654432
14.040456 -26.270027 -0.52715695
14.059072 -26.277685 -0.51743537
14.736803 -26.34247 -0.50900108
14.777512 -26.341499 -0.52903581
13.190324 -26.184774 -0.51428312
13.217277 -26.193426 -0.49968645
14.050384 -26.234598 -0.51980096
14.068978 -26.245113 -0.4988625
14.694935 -26.262827 -0.48930824
14.737301 -26.264719 -0.5086205
14.777624 -26.277004 -0.51039225
14.824871 -26.266678 -0.52976215
13.19597 -26.136009 -0.51656073
13.224513 -26.136269 -0.49950129
13.2685 -26.148268 -0.48830539
13.991964 -26.170414 -0.52836806
14.018737 -26.173889 -0.49453259
14.063278 -26.190956 -0.51445335
14.545255 -26.225218 -0.4911015
14.699628 -26.233732 -0.49716052
14.726764 -26.230789 -0.51873046
14.785928 -26.227703 -0.51776075
14.816303 -26.233847 -0.5252434
13.200811 -26.084679 -0.51648384
13.221233 -26.087072 -0.49608535
14.054046 -26.134441 -0.51904249
14.07956 -26.124571 -0.49986732
14.745916 -26.193157 -0.5066396
14.777633 -26.194052 -0.51495147
13.200024 -26.037756 -0.51305789
13.225374 -26.033096 -0.49974248
14.051925 -26.09182 -0.51229143
14.083111 -26.105776 -0.49175891
14.557262 -26.10133 -0.48968649
14.60797 -26.098364 -0.48976561
14.697788 -26.120079 -0.5026316
14.737403 -26.134228 -0.51308519
14.789064 -26.127092 -0.52254349
13.204474 -25.985672 -0.51600033
13.235413 -25.985741 -0.49802837
13.963245 -26.043922 -0.53093034
14.002147 -26.039331 -0.51471227
14.060529 -26.016357 -0.52741545
14.087562 -26.040358 -0.5004071
14.709881 -26.083048 -0.49610484
14.757721 -26.076981 -0.50778937
14.790168 -26.080387 -0.52232617
14.822681 -26.105469 -0.53690535
13.166004 -25.927042 -0.53358495
13.203475 -25.930668 -0.5100621
13.230487 -25.937515 -0.49899182
14.0667 -25.981976 -0.52418488
14.087765 -25.989 -0.5028404
14.699327 -26.013449 -0.50517142
14.7529 -26.043032 -0.5213753
14.775097 -26.044216 -0.52328312
13.174401 -25.886215 -0.52811289
13.204495 -25.883677 -0.51157928
13.24247 -25.870729 -0.503874
14.073674 -25.962187 -0.51248723
14.089036 -25.958055 -0.491074
14.559907 -25.964029 -0.50765496
14.604235 -25.960808 -0.49698037
14.654461 -25.967134 -0.49121785
14.699064 -25.985157 -0.51619077
14.744297 -25.990044 -0.51355273
14.794555 -25.988211 -0.5277285
13.158199 -25.815334 -0.51692909
13.205926 -25.834824 -0.51041096
13.246477 -25.837563 -0.50916785
14.01068 -25.903603 -0.53334701
14.061257 -25.87941 -0.50845033
14.096527 -25.875366 -0.49815661
14.599669 -25.937193 -0.48859757
14.758489 -25.934566 -0.52071536
14.793698 -25.928316 -0.52796239
13.011723 -25.765322 -0.51526052
13.071537 -25.760086 -0.51666975
13.105998 -25.780247 -0.5124476
13.149495 -25.783381 -0.51669079
13.198252 -25.805197 -0.50479919
13.277807 -25.809259 -0.50257099
13.283761 -25.806009 -0.4920761
14.06851 -25.832657 -0.51139039
14.08679 -25.848286 -0.49513188
14.729874 -25.865705 -0.50311255
14.757273 -25.86009 -0.50961417
14.804627 -25.882788 -0.51361513
12.914259 -25.720512 -0.51143974
12.959326 -25.713177 -0.50639194
13.01942 -25.732784 -0.50453871
13.051829 -25.744123 -0.50578141
13.108783 -25.727261 -0.49088311
13.865367 -25.778383 -0.52643245
13.926273 -25.780748 -0.52053899
13.965499 -25.759459 -0.53294015
13.990289 -25.763018 -0.5112952
14.064249 -25.784609 -0.51018274
14.723251 -25.838589 -0.49924558
14.767514 -25.830126 -0.51889694
14.812122 -25.825977 -0.52355945
14.846486 -25.836958 -0.52774489
13.424449 -25.680189 -0.52010274
13.461007 -25.686432 -0.50452995
14.074935 -25.737104 -0.51304781
14.096758 -25.736084 -0.49858895
14.723672 -25.76049 -0.50615883
14.762791 -25.789206 -0.5078398
14.801908 -25.785709 -0.50856954
14.853914 -25.798847 -0.53743804
13.431393 -25.644314 -0.52900511
13.465113 -25.648073 -0.50511712
13.494067 -25.641188 -0.49337795
14.065612 -25.706894 -0.52513957
14.109848 -25.713829 -0.50343794
14.567932 -25.721027 -0.49620128
14.630774 -25.725111 -0.48936975
14.641965 -25.719685 -0.48801231
14.719249 -25.727627 -0.50560504
14.771739 -25.740316 -0.51461703
14.80858 -25.723732 -0.5227772
13.337344 -25.571146 -0.53531498
13.374659 -25.590895 -0.51938802
13.429777 -25.589025 -0.51579261
13.466613 -25.607759 -0.50669998
13.513657 -25.597458 -0.4969537
14.078345 -25.622183 -0.52683306
14.105089 -25.625257 -0.49114215
14.767324 -25.696184 -0.50499016
14.80609 -25.700918 -0.52086371
13.384297 -25.563929 -0.49634713
13.402758 -25.570375 -0.49815485
14.084559 -25.584524 -0.52213514
14.108225 -25.584297 -0.49835095
14.730677 -25.622679 -0.51610571
14.7804 -25.635662 -0.52811664
14.811678 -25.611486 -0.51788896
13.406397 -25.517046 -0.49025077
14.039475 -25.517662 -0.51363558
14.084195 -25.539469 -0.51452774
14.105199 -25.552534 -0.50073963
14.581162 -25.563278 -0.50705492
14.624365 -25.561275 -0.49620694
14.692868 -25.585094 -0.49384648
14.730321 -25.587465 -0.51351517
14.768066 -25.58605 -0.52217549
14.813279 -25.596258 -0.52740395
14.092407 -25.4809 -0.52674478
14.115887 -25.477365 -0.50330752
14.742845 -25.531321 -0.50035214
14.774486 -25.536989 -0.51824129
14.807783 -25.541077 -0.53116238
20.757332 -25.883886 -0.51503026
20.825613 -25.889759 -0.52054489
13.438341 -25.391335 -0.51836437
13.473489 -25.397722 -0.5038048
13.531422 -25.389124 -0.50252467
13.940091 -25.404245 -0.53083527
14.046781 -25.43335 -0.53415948
14.092052 -25.446682 -0.52396661
14.117176 -25.455559 -0.50108695
14.576865 -25.445467 -0.51163268
14.634444 -25.454962 -0.49421388
14.700692 -25.45993 -0.49538645
14.72078 -25.469692 -0.51349604
14.776444 -25.474411 -0.51944286
14.820016 -25.463469 -0.53403825
20.775568 -25.84656 -0.51874703
20.821815 -25.854229 -0.50485408
20.856833 -25.832762 -0.52515101
13.281895 -25.35084 -0.49009088
13.360059 -25.335369 -0.534289
13.452835 -25.348595 -0.52279621
13.484111 -25.352034 -0.50843513
13.538467 -25.365448 -0.504605
13.887211 -25.387432 -0.53462535
13.951061 -25.403114 -0.53012776
13.969674 -25.401554 -0.53200233
14.042632 -25.373716 -0.51997048
14.06884 -25.387978 -0.49176216
14.633154 -25.439394 -0.49767405
14.661861 -25.431509 -0.49194753
14.740325 -25.409346 -0.51210409
14.781329 -25.420858 -0.51602304
20.737322 -25.812531 -0.53349483
20.785744 -25.804684 -0.51513696
20.811207 -25.787399 -0.51427233
20.858591 -25.811052 -0.51236975
12.684077 -25.259653 -0.51350319
12.719847 -25.273041 -0.51198649
12.772419 -25.251863 -0.51072633
13.064753 -25.260618 -0.52927798
13.067848 -25.260862 -0.53734893
13.20653 -25.265308 -0.5124563
13.218105 -25.265823 -0.53670204
13.287883 -25.292261 -0.51240903
13.35594 -25.279037 -0.53478426
13.401474 -25.29236 -0.51570195
13.438215 -25.298336 -0.51042092
13.485887 -25.31106 -0.50769114
13.517955 -25.308893 -0.49699935
14.048815 -25.336172 -0.51615429
14.074142 -25.345289 -0.49703291
14.686251 -25.384706 -0.49566752
14.741155 -25.37644 -0.51223207
14.780812 -25.389383 -0.51293063
14.816903 -25.407269 -0.53222758
20.778376 -25.760595 -0.53147852
20.81366 -25.762032 -0.50926489
12.71707 -25.192043 -0.4977774
12.721247 -25.192978 -0.52325052
12.800919 -25.213926 -0.50881499
12.830524 -25.221439 -0.51554418
12.906717 -25.191711 -0.51853329
13.08157 -25.211596 -0.51008916
13.150612 -25.227329 -0.51392889
13.192762 -25.225145 -0.51072711
13.226851 -25.238504 -0.51427436
13.287549 -25.254189 -0.5131973
13.337415 -25.262064 -0.51361799
13.380719 -25.264256 -0.50786388
13.886111 -25.257385 -0.53601152
14.047582 -25.288996 -0.52113259
14.076776 -25.264408 -0.50055051
14.581431 -25.318726 -0.48851743
14.700435 -25.339214 -0.50836313
14.748397 -25.328562 -0.5126251
14.793389 -25.326015 -0.5269534
21.869753 -25.759438 -0.48990473
21.908913 -25.76897 -0.49102253
12.854239 -25.153164 -0.51145977
12.892829 -25.18037 -0.51112902
12.960965 -25.15337 -0.50592405
12.982261 -25.155556 -0.51239896
14.058201 -25.227879 -0.52256876
14.082262 -25.227879 -0.49968055
14.692772 -25.26985 -0.49773937
14.747991 -25.288525 -0.51290542
14.780481 -25.291809 -0.52395618
12.949867 -25.108755 -0.51042372
12.979159 -25.133554 -0.5123747
13.057156 -25.1185 -0.51060158
13.085806 -25.113377 -0.51846778
13.958994 -25.179201 -0.52446908
13.986143 -25.175779 -0.51817036
14.056052 -25.190521 -0.52174169
14.077893 -25.204914 -0.50271618
14.553591 -25.197001 -0.51055074
14.587594 -25.198112 -0.5000242
14.665228 -25.213654 -0.49638009
14.69481 -25.217714 -0.51481175
14.739394 -25.222689 -0.51840305
14.775271 -25.234522 -0.5197776
13.072302 -25.081074 -0.50660884
13.093918 -25.079525 -0.51002592
13.158604 -25.085325 -0.51754832
13.185417 -25.070927 -0.50454634
14.061628 -25.128979 -0.51793706
14.087105 -25.125006 -0.498698
14.601056 -25.186136 -0.49532321
14.70967 -25.171112 -0.49736959
14.748303 -25.168375 -0.51623315
14.781594 -25.191162 -0.53336507
13.160285 -25.030062 -0.51981771
13.198374 -25.032629 -0.50984418
13.248438 -25.041388 -0.50188601
13.963265 -25.06909 -0.5147993
13.987392 -25.06711 -0.5189119
14.059221 -25.094206 -0.51310283
14.084429 -25.099054 -0.49827415
14.572029 -25.094742 -0.49929163
14.595011 -25.099817 -0.4949255
14.653446 -25.124033 -0.49452329
14.698542 -25.121382 -0.51131141
14.751946 -25.125731 -0.52002901
14.786482 -25.123642 -0.5288831
13.168321 -24.974045 -0.52435237
13.204539 -24.985662 -0.50633204
13.863883 -25.043043 -0.53492981
13.912071 -25.037699 -0.52414548
13.940185 -25.050062 -0.50589657
13.988891 -25.041487 -0.52827156
14.065587 -25.028248 -0.51733899
14.088424 -25.032093 -0.49376184
14.558343 -25.090467 -0.50109285
14.600863 -25.086651 -0.49296445
14.720288 -25.065355 -0.49955285
14.759786 -25.070175 -0.52061337
14.78534 -25.084511 -0.53440869
23.218803 -25.584192 -0.4935028
13.172433 -24.927296 -0.52358365
13.199768 -24.935085 -0.50298703
14.07069 -24.993895 -0.51039606
14.090817 -25.004028 -0.49494007
14.611919 -25.005722 -0.49064419
14.636992 -25.03928 -0.49074993
14.714627 -25.014084 -0.50818539
14.760163 -25.019798 -0.51251054
14.798191 -25.025627 -0.5277428
23.191069 -25.547775 -0.50887734
23.232231 -25.546188 -0.51867503
23.274218 -25.538225 -0.52361596
13.135632 -24.876818 -0.53628278
13.172257 -24.877457 -0.51981288
13.201776 -24.882559 -0.50194138
13.250523 -24.88328 -0.50147992
13.899922 -24.924164 -0.5340097
14.066703 -24.939684 -0.52090645
14.571313 -24.984623 -0.49410158
14.608004 -24.982502 -0.4909139
14.715573 -24.984629 -0.51845706
14.764327 -24.972275 -0.52141887
14.795996 -24.985043 -0.52682453
23.205553 -25.507196 -0.51470852
23.256664 -25.499285 -0.52197087
13.132707 -24.82287 -0.52737635
13.171086 -24.828398 -0.51110643
13.208498 -24.834332 -0.50301933
13.869113 -24.885998 -0.53327048
13.908328 -24.892958 -0.51344621
13.947382 -24.894299 -0.52373677
14.067507 -24.873072 -0.51310736
14.712114 -24.906994 -0.49846214
14.764302 -24.939161 -0.51246774
14.792305 -24.94066 -0.53017259
23.1982 -25.455219 -0.52305168
23.242613 -25.434566 -0.49522343
13.134392 -24.781231 -0.52437425
13.165285 -24.782579 -0.50761211
13.203116 -24.774948 -0.50587773
14.044544 -24.82 -0.52045941
14.073219 -24.844584 -0.50714296
14.676661 -24.850679 -0.49746153
14.721642 -24.866179 -0.51537591
14.769814 -24.869572 -0.51770818
23.145496 -25.384842 -0.51452154
23.198099 -25.399185 -0.49697065
13.140534 -24.734791 -0.5281418
13.167871 -24.731968 -0.50629812
13.213737 -24.749851 -0.50169671
13.815393 -24.74987 -0.53573608
13.876102 -24.767338 -0.53527045
13.990648 -24.782993 -0.52257323
14.017552 -24.775146 -0.50292647
14.064646 -24.787001 -0.49933606
14.584079 -24.828197 -0.49505115
14.607794 -24.831945 -0.49319062
14.679152 -24.839514 -0.49611109
14.726838 -24.819965 -0.51318425
14.76468 -24.821482 -0.52179903
14.800461 -24.822111 -0.5373165
23.175333 -25.364582 -0.5174427
23.20619 -25.342777 -0.5176807
13.141221 -24.682671 -0.52934116
13.172599 -24.678925 -0.50805146
13.213646 -24.685598 -0.49626386
14.035723 -24.733707 -0.51631027
14.059054 -24.732267 -0.49810079
14.686523 -24.751553 -0.50543404
14.723914 -24.776003 -0.50938267
14.76034 -24.792679 -0.51716369
23.171297 -25.313614 -0.51100004
23.206152 -25.287163 -0.52278399
23.243488 -25.300011 -0.49598265
13.139498 -24.629427 -0.52964371
13.173744 -24.631927 -0.50558054
13.919428 -24.694588 -0.5122683
14.039116 -24.683483 -0.5160169
14.065155 -24.674038 -0.50367385
14.534255 -24.712391 -0.49352756
14.681635 -24.725893 -0.50476485
14.734011 -24.723967 -0.50698984
14.771029 -24.729958 -0.523359
20.730501 -25.085947 -0.51364452
20.768587 -25.08478 -0.52097243
23.168236 -25.24115 -0.52706027
23.217365 -25.236809 -0.52067119
13.140663 -24.576757 -0.51747
13.174451 -24.576916 -0.50178766
13.828175 -24.620047 -0.53190529
13.885927 -24.645205 -0.5259974
13.945271 -24.649126 -0.52510476
13.975584 -24.653221 -0.49673101
14.042047 -24.637186 -0.52032554
14.064121 -24.64399 -0.49855611
14.586649 -24.649179 -0.49083215
14.653136 -24.658276 -0.48979646
14.677691 -24.665226 -0.51344037
14.734822 -24.679314 -0.50939745
14.772552 -24.68421 -0.5227555
20.771021 -25.048086 -0.51721817
20.803606 -25.045822 -0.51663643
23.173748 -25.201397 -0.518511
23.2183 -25.183878 -0.4989135
23.244963 -25.209944 -0.50574225
13.14285 -24.526943 -0.51559085
13.17961 -24.528091 -0.50223786
13.837492 -24.550167 -0.53693098
13.94416 -24.561859 -0.51831937
13.960438 -24.560184 -0.51591533
14.031513 -24.595274 -0.50201595
14.533353 -24.639076 -0.50606173
14.582408 -24.633955 -0.49461168
14.611587 -24.626213 -0.49399686
14.682473 -24.634954 -0.50664371
14.733511 -24.612604 -0.51161504
14.771005 -24.623699 -0.52624327
20.725294 -24.993473 -0.52229065
20.781996 -24.99511 -0.52573186
20.797071 -24.991005 -0.49529597
23.178246 -25.142324 -0.52342099
23.209209 -25.139797 -0.51137036
23.244631 -25.17223 -0.51095009
13.149615 -24.479027 -0.52015245
13.17211 -24.484962 -0.49931133
13.89317 -24.545712 -0.52776384
14.037242 -24.522781 -0.51305938
14.072232 -24.519878 -0.49670619
14.686342 -24.562822 -0.49013332
14.742265 -24.57617 -0.52122992
14.762261 -24.571848 -0.52389628
20.693085 -24.957539 -0.53945529
20.733994 -24.959303 -0.50180602
20.770981 -24.943779 -0.51180363
21.855316 -25.003809 -0.49408725
23.1413 -25.073639 -0.53373104
23.163322 -25.080847 -0.52405137
23.212936 -25.09107 -0.514552
13.151314 -24.431938 -0.5157392
13.17659 -24.433983 -0.49805623
14.042458 -24.491699 -0.5095669
14.067157 -24.497942 -0.48877355
14.661568 -24.501455 -0.49331769
14.6907 -24.515013 -0.51452518
14.748111 -24.51236 -0.51304603
14.771709 -24.528379 -0.51718122
20.687071 -24.898651 -0.53136611
20.740709 -24.899042 -0.52841556
20.769623 -24.919426 -0.52193099
21.861492 -24.985689 -0.5070985
23.176361 -25.043463 -0.52867979
23.2159 -25.045244 -0.52070552
13.157489 -24.386015 -0.5161407
13.180089 -24.382507 -0.49964556
13.222299 -24.407246 -0.49344918
13.910699 -24.430378 -0.53487253
14.044714 -24.428638 -0.51013762
14.544259 -24.486523 -0.49511456
14.573022 -24.484911 -0.49098775
14.666836 -24.46763 -0.49271408
14.703913 -24.466467 -0.51232207
14.739194 -24.464899 -0.51563472
14.775626 -24.481731 -0.5287118
23.188572 -25.020514 -0.51128775
14.054554 -24.386904 -0.51345801
14.079012 -24.39362 -0.49622113
14.654101 -24.403759 -0.50015539
14.703024 -24.409836 -0.52145636
14.742754 -24.421917 -0.51752603
14.7797 -24.432751 -0.52730721
21.761551 -24.847116 -0.50157064
13.946812 -24.335835 -0.51077867
13.9977 -24.327555 -0.51844281
14.049167 -24.318361 -0.50747192
14.557796 -24.372822 -0.50789613
14.588024 -24.37014 -0.4991647
14.659412 -24.387209 -0.50980347
14.708004 -24.371662 -0.49820375
14.750681 -24.376856 -0.5276612
21.734985 -24.813038 -0.5004769
21.766722 -24.801149 -0.49059746
14.026932 -24.284803 -0.53086251
14.058107 -24.282652 -0.50551987
14.622395 -24.321613 -0.49084222
14.643944 -24.315636 -0.49466783
14.707043 -24.32513 -0.50728649
14.746758 -24.334732 -0.5243268
14.779283 -24.308846 -0.5359273
14.023 -24.229832 -0.51299077
14.047194 -24.245369 -0.5131256
14.56181 -24.261375 -0.49540779
14.59203 -24.266502 -0.4925983
14.665606 -24.278704 -0.49895355
14.703908 -24.287094 -0.5196293
14.758199 -24.270716 -0.52702695
14.785357 -24.272469 -0.52949709
20.393095 -24.603136 -0.50446606
21.668823 -24.724394 -0.49294075
21.716688 -24.715666 -0.49422422
13.864115 -24.173712 -0.51904649
13.898144 -24.189705 -0.5223968
13.975928 -24.198595 -0.52234358
14.033033 -24.178049 -0.5180344
14.046089 -24.1703 -0.50959486
14.722857 -24.229662 -0.50874531
14.752674 -24.235851 -0.52330089
14.816157 -24.243332 -0.50170922
18.354719 -24.430113 -0.52086544
18.37784 -24.44459 -0.52123457
20.402901 -24.577316 -0.52617365
14.026282 -24.141493 -0.528593
14.051764 -24.13765 -0.50640106
14.573677 -24.143606 -0.49119189
14.663339 -24.157215 -0.50947249
14.706386 -24.165047 -0.51226956
14.754367 -24.167011 -0.50992042
18.361908 -24.416306 -0.51365829
18.40099 -24.407368 -0.51306432
20.401337 -24.522005 -0.5109244
21.859201 -24.599012 -0.51821685
13.977081 -24.067705 -0.51497513
14.003491 -24.096392 -0.52748036
14.056712 -24.069641 -0.51106161
14.526254 -24.132807 -0.50412017
14.569569 -24.129868 -0.49629909
14.593169 -24.126562 -0.49105728
14.665886 -24.138744 -0.51129466
14.720672 -24.109184 -0.51475751
14.75527 -24.119591 -0.52540666
18.31741 -24.328173 -0.50530607
18.358025 -24.358662 -0.51228333
18.394562 -24.354326 -0.5189833
20.363148 -24.454424 -0.52078527
20.39897 -24.473951 -0.5092473
21.847679 -24.558199 -0.51067579
21.87879 -24.565802 -0.51459378
14.029977 -24.039248 -0.53477722
14.061163 -24.027805 -0.50608045
14.670343 -24.060663 -0.49738327
14.721872 -24.073587 -0.51890826
14.751465 -24.09383 -0.52765441
18.28034 -24.298166 -0.51410818
18.312637 -24.293413 -0.50428265
18.368711 -24.294722 -0.51451981
18.388655 -24.282343 -0.50126427
20.344612 -24.419121 -0.51131368
20.397158 -24.416592 -0.50783294
21.827568 -24.534246 -0.4960137
14.034783 -23.98704 -0.52096027
14.064963 -24.000721 -0.49956727
14.114943 -23.994165 -0.50197107
14.534975 -24.01026 -0.51020414
14.580297 -24.008509 -0.49762928
14.605809 -24.005754 -0.49686056
14.672163 -24.028374 -0.51143932
14.742051 -24.023373 -0.53168494
14.75773 -24.032255 -0.52688909
18.331213 -24.253319 -0.51539266
18.373529 -24.250536 -0.52692634
18.406338 -24.24086 -0.50927496
20.356514 -24.395498 -0.51640409
20.430206 -24.387989 -0.49442512
20.436579 -24.365351 -0.49488038
14.046347 -23.917788 -0.52132046
14.069318 -23.91349 -0.49784857
14.099047 -23.94783 -0.51857197
14.578954 -23.983849 -0.48992416
14.631845 -23.954504 -0.49333838
14.697165 -23.981155 -0.4889299
14.731282 -23.985577 -0.51321155
14.756832 -23.982933 -0.52961785
14.805452 -24.002466 -0.53116858
18.367834 -24.212271 -0.51460522
18.394949 -24.203215 -0.52913618
14.631669 -23.922594 -0.49016052
14.67627 -23.924959 -0.49326152
14.702938 -23.927645 -0.50201386
14.765302 -23.930805 -0.52582258
20.419258 -24.269285 -0.5193792
20.420265 -24.232218 -0.51783961
20.38681 -24.172346 -0.53544408
20.414829 -24.192877 -0.53650296
20.418499 -24.114601 -0.52566355
23.14566 -24.274263 -0.50264776
20.39607 -24.074139 -0.53488493
20.423409 -24.072292 -0.52229887
23.126373 -24.228771 -0.50934052
23.164196 -24.23897 -0.49911582
20.396982 -24.029245 -0.5242964
20.429003 -24.027451 -0.51271504
23.12598 -24.182674 -0.50118637
20.393021 -23.960527 -0.51759738
20.413347 -23.98909 -0.50842226
23.119139 -24.13166 -0.51432508
20.343315 -23.93257 -0.52982002
20.393196 -23.920439 -0.51493156
20.42317 -23.927206 -0.51079386
23.09836 -24.106195 -0.51547825
23.136633 -24.087362 -0.51128167
23.107677 -24.053661 -0.49563763
23.143368 -24.027161 -0.52477819
23.093689 -23.986681 -0.49696672
23.139643 -23.988792 -0.51298547
23.176802 -23.999668 -0.50176531
23.113255 -23.961456 -0.52276456
23.138212 -23.940674 -0.51600409
23.13249 -23.901314 -0.50862944
13.21942 -26.479816 -0.4610182
13.219264 -26.437708 -0.4614082
13.261115 -26.42627 -0.46430233
13.22564 -26.387167 -0.45970005
13.262625 -26.404793 -0.44915837
14.077148 -26.429829 -0.48218352
14.622433 -26.474066 -0.45415333
13.224978 -26.334785 -0.46266487
13.251987 -26.322079 -0.44861904
14.08765 -26.391569 -0.47735673
14.102652 -26.369814 -0.464829
14.591904 -26.396994 -0.47760057
14.627475 -26.43593 -0.46185809
14.665107 -26.437321 -0.46501714
14.729369 -26.420519 -0.47966805
13.226114 -26.290073 -0.46049532
13.273595 -26.272818 -0.46527636
14.088526 -26.341379 -0.47030124
14.591019 -26.369669 -0.48099053
14.616728 -26.36372 -0.47098389
14.668932 -26.373816 -0.45864877
14.712058 -26.366522 -0.46420282
14.755371 -26.370781 -0.48605803
13.231425 -26.239021 -0.4619489
13.258243 -26.257584 -0.45720023
14.091548 -26.286791 -0.46341375
14.600629 -26.332848 -0.46937072
14.622453 -26.326647 -0.46614146
14.68488 -26.34816 -0.46160194
14.72845 -26.348867 -0.46225974
13.22652 -26.188618 -0.46050006
13.262413 -26.186543 -0.44938466
14.089869 -26.245464 -0.47088018
14.11934 -26.240639 -0.45300439
14.636641 -26.284834 -0.44393364
14.672569 -26.285442 -0.45195735
14.736773 -26.287441 -0.48066226
13.141384 -26.119625 -0.44010383
13.197868 -26.13578 -0.4637019
13.23071 -26.137049 -0.46072423
13.276216 -26.13938 -0.45726952
14.001355 -26.173302 -0.4734115
14.042216 -26.171837 -0.4535234
14.094555 -26.20521 -0.46747017
14.551703 -26.224651 -0.4864834
14.596547 -26.217823 -0.46893319
14.62908 -26.220417 -0.45603082
14.678171 -26.225697 -0.44732553
14.727702 -26.220318 -0.45291185
14.760374 -26.218645 -0.48313096
13.108133 -26.071791 -0.44392937
13.140456 -26.077135 -0.4531799
13.192652 -26.084246 -0.45730212
13.228948 -26.085951 -0.46774688
14.094007 -26.133825 -0.47379172
14.606285 -26.183832 -0.45651758
14.633735 -26.168766 -0.45334375
14.682177 -26.178007 -0.45552871
14.744381 -26.190294 -0.47837037
14.769592 -26.203012 -0.48122352
19.17137 -26.474491 -0.44479045
13.100416 -26.033863 -0.44565731
13.142788 -26.036732 -0.45199597
13.197996 -26.036505 -0.45871443
13.229964 -26.033688 -0.46825024
14.061882 -26.074593 -0.4721382
14.092049 -26.104485 -0.46930397
14.122562 -26.102436 -0.46894312
14.602161 -26.10293 -0.47699279
14.641323 -26.114494 -0.45848882
14.676004 -26.125755 -0.47592703
13.112248 -26.003742 -0.44096589
13.133852 -26.005543 -0.44667247
13.219235 -26.003481 -0.45865357
13.23989 -25.983118 -0.45931834
13.283988 -26.008379 -0.46001139
14.110373 -26.056555 -0.47617403
14.606792 -26.08004 -0.4677324
14.636405 -26.075672 -0.45831165
14.695786 -26.079201 -0.45377097
14.737593 -26.078482 -0.46887714
13.222713 -25.927145 -0.47198179
13.23669 -25.935349 -0.45932248
14.103644 -25.983534 -0.47753185
14.618757 -26.030148 -0.46962896
14.644149 -26.037607 -0.46723115
14.684004 -26.026653 -0.47130626
13.221853 -25.878002 -0.47046909
13.239185 -25.890291 -0.45737985
13.282576 -25.869892 -0.45321348
14.060768 -25.925241 -0.47817659
14.106729 -25.922852 -0.46542019
14.609358 -25.956684 -0.48456472
14.652072 -25.976881 -0.47111741
14.707193 -25.96489 -0.45744899
14.732139 -25.970915 -0.47929865
13.162224 -25.815725 -0.46002516
13.219682 -25.829454 -0.46664375
13.243862 -25.843046 -0.45665708
14.01635 -25.896397 -0.45754653
14.048934 -25.893608 -0.45969385
14.106105 -25.87805 -0.46808377
14.61836 -25.930502 -0.47777003
14.643361 -25.916962 -0.4753983
14.706437 -25.937181 -0.46477011
14.733484 -25.935028 -0.47077876
23.2374 -26.472528 -0.44400933
13.009604 -25.764908 -0.46442145
13.07535 -25.774157 -0.45929676
13.109657 -25.774765 -0.46338657
13.147786 -25.778923 -0.46202639
13.209682 -25.801315 -0.46477613
13.248584 -25.807886 -0.46014243
13.287575 -25.80352 -0.48252308
14.107481 -25.843847 -0.46376532
14.611474 -25.846487 -0.45596111
14.661316 -25.889338 -0.44479454
14.700874 -25.88769 -0.45548809
14.757195 -25.863089 -0.47740257
14.796214 -25.863131 -0.47910786
23.235622 -26.395643 -0.44685593
12.883544 -25.699883 -0.48680469
12.912686 -25.719084 -0.46051687
12.967399 -25.717556 -0.46032494
13.012388 -25.732265 -0.45926672
13.052794 -25.744333 -0.46116719
13.150543 -25.720039 -0.45048761
13.220045 -25.75416 -0.45118314
13.408587 -25.727209 -0.45318004
14.078691 -25.798197 -0.46106198
14.103674 -25.787277 -0.47588283
14.56759 -25.825848 -0.4798364
14.619808 -25.819971 -0.45961124
14.648787 -25.817522 -0.45141599
14.701134 -25.830425 -0.45769578
14.751112 -25.836781 -0.46418208
23.207905 -26.351439 -0.4548476
23.228031 -26.361267 -0.44444048
12.924182 -25.674137 -0.44131377
12.958203 -25.675764 -0.45540923
13.016215 -25.678101 -0.46135461
13.050014 -25.67944 -0.46446776
13.388505 -25.711245 -0.45564798
13.427326 -25.707708 -0.446024
13.479338 -25.683582 -0.45814317
13.506794 -25.686201 -0.46266818
14.10573 -25.739008 -0.47637659
14.634204 -25.783754 -0.44712386
14.656816 -25.779833 -0.44970602
14.709107 -25.789263 -0.46007743
14.755112 -25.788656 -0.46573916
14.792924 -25.802481 -0.48158684
21.914829 -26.217299 -0.45381996
13.485922 -25.64699 -0.46471331
13.506831 -25.644625 -0.45602202
13.568877 -25.653444 -0.45498744
14.070882 -25.690659 -0.48620319
14.117999 -25.706146 -0.47502047
14.621938 -25.714048 -0.47393134
14.659322 -25.724602 -0.46222889
14.716831 -25.723625 -0.46605209
14.747658 -25.722464 -0.46629989
21.923819 -26.181261 -0.44174522
13.136273 -25.573223 -0.45532796
13.167202 -25.571581 -0.45809156
13.218956 -25.581032 -0.45262825
13.391717 -25.586836 -0.47916469
13.430177 -25.576492 -0.45503661
13.477818 -25.602045 -0.46206903
13.513366 -25.604942 -0.45807099
13.554477 -25.619513 -0.44409671
14.115689 -25.623211 -0.4801724
14.634054 -25.681236 -0.45954069
14.661561 -25.676165 -0.45785546
14.71244 -25.688557 -0.45202208
14.763464 -25.689621 -0.47735354
13.132031 -25.53175 -0.45337102
13.170441 -25.529667 -0.45916301
13.220699 -25.539293 -0.46333629
13.256879 -25.539547 -0.44842383
13.309092 -25.538641 -0.44261855
13.389548 -25.522289 -0.47953001
13.436263 -25.559134 -0.45837429
13.461447 -25.545744 -0.44759688
14.121245 -25.582567 -0.48231608
14.639538 -25.631426 -0.47226843
14.669337 -25.631855 -0.46883103
14.710867 -25.635563 -0.48192781
13.140505 -25.480753 -0.45118716
13.172883 -25.481707 -0.46062449
13.222445 -25.484394 -0.46465531
13.279304 -25.4893 -0.45137975
13.318491 -25.496569 -0.44447601
13.439137 -25.51408 -0.45136729
13.46558 -25.499924 -0.4512617
14.040757 -25.512825 -0.46922392
14.06063 -25.512598 -0.48463878
14.118484 -25.564785 -0.48364785
14.63222 -25.554222 -0.48041996
14.672281 -25.574673 -0.46402043
14.728839 -25.568377 -0.45920673
14.76352 -25.571606 -0.46868286
13.10111 -25.435181 -0.44099304
13.132005 -25.434406 -0.45336592
13.177931 -25.434816 -0.45906129
13.219941 -25.443609 -0.47356984
13.295336 -25.450808 -0.45477054
13.347477 -25.437792 -0.43961161
13.36359 -25.450207 -0.43977779
13.446225 -25.455742 -0.44684494
13.475116 -25.458029 -0.45435795
14.073515 -25.497328 -0.46350932
14.123724 -25.490627 -0.48112181
14.638844 -25.522835 -0.47491267
14.677774 -25.51865 -0.46700573
14.726928 -25.534874 -0.46945313
13.151234 -25.371984 -0.4563514
13.180439 -25.386896 -0.46088463
13.223712 -25.395271 -0.46230385
13.448348 -25.415878 -0.44141635
13.486288 -25.40144 -0.45722732
13.534139 -25.388969 -0.46043265
13.564758 -25.381977 -0.44628593
14.10108 -25.419279 -0.47528881
14.120546 -25.45083 -0.47770727
14.641749 -25.458401 -0.4796918
14.677074 -25.464935 -0.47173449
14.75894 -25.455675 -0.47174242
13.328556 -25.331596 -0.45224953
13.50001 -25.360598 -0.46628571
13.533075 -25.349113 -0.45887941
13.56131 -25.352882 -0.44563064
14.077227 -25.381227 -0.47260052
14.640664 -25.424753 -0.47952524
14.675107 -25.426079 -0.46276492
14.739182 -25.425817 -0.47261161
14.761831 -25.426994 -0.47181374
20.811987 -25.796244 -0.48082286
21.949928 -25.858171 -0.44362643
12.701533 -25.251106 -0.46816772
12.743296 -25.263554 -0.46084368
12.780166 -25.244755 -0.46133435
13.197725 -25.262547 -0.46294606
13.262837 -25.285179 -0.4375056
13.276329 -25.289047 -0.46426472
13.445442 -25.288237 -0.46012783
13.487919 -25.304794 -0.45793027
13.532144 -25.315075 -0.46236545
14.086157 -25.340239 -0.47562227
14.605718 -25.386902 -0.45388642
14.640527 -25.383366 -0.45961443
14.67383 -25.383438 -0.47109744
14.741888 -25.357204 -0.48495448
14.76738 -25.357153 -0.4857918
21.917337 -25.821083 -0.45570305
21.952885 -25.818727 -0.44196415
12.718037 -25.191086 -0.47058129
12.723524 -25.190327 -0.44804966
12.806566 -25.211708 -0.46128863
12.83947 -25.226885 -0.46323127
13.10907 -25.210217 -0.47031152
13.159059 -25.225025 -0.46052966
13.178258 -25.22193 -0.46018758
13.229634 -25.237631 -0.46258745
13.277063 -25.25317 -0.45921287
13.337863 -25.258238 -0.46549949
13.402506 -25.26413 -0.47874737
13.43342 -25.263029 -0.4551512
13.469094 -25.267256 -0.44771096
14.060375 -25.295094 -0.46505144
14.078901 -25.311216 -0.4743906
14.598397 -25.314817 -0.47457206
14.642217 -25.324198 -0.45603618
14.690629 -25.324219 -0.46265322
14.718211 -25.320963 -0.46974298
21.882011 -25.778631 -0.46052906
21.920349 -25.771294 -0.45950714
21.964577 -25.775095 -0.45106414
12.852282 -25.15292 -0.4613167
12.899201 -25.182518 -0.46223986
12.954836 -25.152721 -0.46479726
12.989754 -25.154989 -0.45869875
14.088897 -25.241468 -0.48092523
14.609178 -25.274282 -0.46199152
14.635078 -25.267006 -0.46497712
14.6968 -25.288052 -0.4663282
14.741746 -25.284838 -0.48301652
21.888338 -25.732676 -0.47653753
21.930305 -25.735336 -0.44756874
12.937676 -25.108728 -0.46205577
