# .PCD v0.7 - Point Cloud Data file format
VERSION 0.7
FIELDS x y z
SIZE 4 4 4
TYPE F F F
COUNT 1 1 1
WIDTH 1471
HEIGHT 1
VIEWPOINT 0 0 0 1 0 0 0
POINTS 1471
DATA ascii
18.929466 -31.390425 -0.06474863
18.971972 -31.404882 -0.05878792
19.023586 -31.409414 -0.06079673
12.588723 -30.951761 -0.053708993
12.621553 -30.960056 -0.079586066
18.943449 -31.356859 -0.081903383
18.975563 -31.354092 -0.064831957
19.017046 -31.350212 -0.05734922
19.096832 -31.33696 -0.061523497
19.111656 -31.353745 -0.050605934
12.554658 -30.910357 -0.043519467
12.593717 -30.909693 -0.059158467
12.624475 -30.897818 -0.072268821
18.993042 -31.303476 -0.072059348
19.03149 -31.297701 -0.062458035
19.075216 -31.301994 -0.055048928
12.566182 -30.84584 -0.041907363
12.59118 -30.856184 -0.06086472
19.00193 -31.241049 -0.06160989
19.029659 -31.248972 -0.059377916
19.081886 -31.250364 -0.062794574
19.123028 -31.259926 -0.050096527
12.565042 -30.79698 -0.050250132
12.595887 -30.80081 -0.062828042
12.644269 -30.820454 -0.06645155
12.678962 -30.812807 -0.081194974
18.997595 -31.208452 -0.071964748
19.037333 -31.20635 -0.058906212
19.083134 -31.202639 -0.051631499
12.363502 -30.74794 -0.055605054
12.380287 -30.721188 -0.053792819
12.568084 -30.765423 -0.045977533
12.59755 -30.757685 -0.061943125
12.643061 -30.756321 -0.071318269
18.904442 -31.132746 -0.066669241
18.944937 -31.145632 -0.058262769
18.993063 -31.152107 -0.068023048
19.048315 -31.15498 -0.058450304
19.083147 -31.163763 -0.047356404
19.150349 -31.167667 -0.050640807
12.546486 -30.70274 -0.053060707
12.610951 -30.709738 -0.056343637
12.643969 -30.704329 -0.074321851
12.692139 -30.695536 -0.064837888
18.907326 -31.099766 -0.070545845
18.944775 -31.089415 -0.072802551
18.98431 -31.105791 -0.06004237
19.035328 -31.097345 -0.058689464
19.088371 -31.114599 -0.052059334
18.902193 -31.049 -0.063996211
18.955431 -31.052429 -0.056674048
19.05303 -31.0648 -0.062484629
18.95018 -31.003271 -0.05399568
19.001459 -31.009872 -0.063252449
19.04431 -31.022985 -0.072990939
18.940491 -30.965342 -0.062997013
12.599762 -32.796444 0.010756109
12.626037 -32.807243 -0.0078426488
12.654114 -32.802673 -0.028805207
12.527491 -32.770382 -0.0044432059
12.593933 -32.75676 -0.0052887611
12.615865 -32.760921 -0.012335507
12.552428 -32.719643 -0.001057215
12.581964 -32.706833 -0.0096124224
12.620104 -32.723705 -0.011133796
12.541598 -32.655346 -0.0030964706
12.594296 -32.664352 -0.0061271936
12.623713 -32.677155 -0.013254272
12.554848 -32.609764 -0.0039220862
12.591493 -32.609848 -0.0069782212
12.628455 -32.626392 -0.012326213
12.54868 -32.545326 -0.0080610793
12.593275 -32.559555 -0.0075290613
12.624013 -32.572777 -0.019459205
12.567725 -32.498501 0.013438737
12.591121 -32.51099 -0.0070189014
12.634175 -32.516388 -0.0084952489
12.560297 -32.439148 -0.0046234876
12.593322 -32.45657 -0.0086114779
12.62922 -32.454117 -0.020723071
18.998411 -32.829311 -0.0013526306
12.572507 -32.402279 0.0072482098
12.594759 -32.409607 -0.0083640628
12.631693 -32.420109 -0.022780307
18.997553 -32.792889 -0.014225584
19.034462 -32.802773 -0.011908766
19.090649 -32.816311 -0.0073130727
19.126385 -32.821484 -0.00021370314
12.567751 -32.363434 -0.0022184793
12.600674 -32.363277 -0.0088095702
12.637447 -32.34581 -0.019696273
18.995544 -32.750557 -0.01138421
19.037813 -32.766068 -0.0056074373
19.097694 -32.778114 -0.0071849879
19.136238 -32.777634 -0.0094761997
12.529428 -32.326275 0.016441826
12.565537 -32.311893 0.0021715024
12.595291 -32.308674 -0.012118421
18.952682 -32.702175 -0.0225212
18.986444 -32.709934 -0.0065810587
19.043247 -32.702202 -0.022170819
19.084522 -32.691433 -0.0049981643
12.568643 -32.259785 -0.0053671747
12.607916 -32.259247 -0.011272877
18.96386 -32.668816 -0.010965286
18.999708 -32.654995 -0.0105011
19.043333 -32.655167 -0.012539429
19.092224 -32.670715 -0.0054550115
12.578811 -32.209751 -0.00023519248
12.597915 -32.213192 -0.014041215
19.006121 -32.611996 -0.03072086
19.052675 -32.604607 -0.015245661
19.097393 -32.604637 -0.0073335879
19.131325 -32.593304 -0.0056224046
12.572231 -32.155975 -0.0020965971
12.608296 -32.163662 -0.010869531
12.641927 -32.183197 -0.025007633
19.005774 -32.54073 -0.024642317
19.069252 -32.546223 -0.016524957
19.095266 -32.552418 -0.0042351149
19.155466 -32.577065 -0.0011458127
12.578506 -32.093189 -0.0024299603
12.607412 -32.108017 -0.012049997
19.025488 -32.516369 -0.022809787
19.062538 -32.495831 -0.012969044
19.106573 -32.502712 -0.002921477
12.578093 -32.067089 -0.0013599601
12.607534 -32.058369 -0.014846072
18.961966 -32.445862 -0.015394699
19.01613 -32.448856 -0.013705542
19.063503 -32.45689 -0.011089086
19.1068 -32.457951 -0.0042395918
12.539133 -31.99708 0.0025868388
12.585905 -32.001587 -0.0048266053
12.614768 -32.003899 -0.015673064
18.972065 -32.409081 -0.012241106
19.011929 -32.404762 -0.010277143
19.061605 -32.397095 -0.017825812
19.102926 -32.418221 -0.0056874175
19.154699 -32.434544 0.0079903435
12.59471 -31.959921 0.00099388324
12.621185 -31.956879 -0.012578478
18.934696 -32.349827 -0.027030395
18.971865 -32.349358 -0.0093888696
18.995195 -32.346684 0.0022792406
12.448092 -31.893244 -0.010528035
12.47633 -31.896524 -0.0022410825
12.523863 -31.904192 0.0058461241
12.590955 -31.923998 -0.0065549929
12.625898 -31.910671 -0.012280902
18.960081 -32.323345 -0.027608275
12.442028 -31.84581 -0.0076665469
12.487923 -31.846842 -0.0020868257
12.596174 -31.858286 -0.0038819257
12.622478 -31.878805 -0.0084011666
12.445171 -31.798351 -0.0073541086
12.471567 -31.820906 -0.0074541923
12.412945 -31.729666 -0.024637219
12.443398 -31.752449 -0.0098727513
12.470626 -31.762241 0.0044016773
12.35681 -31.679926 -0.023319876
12.414141 -31.694664 -0.020459233
12.435974 -31.697411 -0.0029596798
12.491173 -31.695244 -0.012260079
12.418545 -31.641792 -0.01671749
12.439993 -31.649399 -0.0072032344
12.474067 -31.662695 -0.013080297
20.429811 -32.131104 -0.0047777444
12.418062 -31.592209 -0.0037599932
12.432493 -31.596733 -0.0079089552
12.504152 -31.58214 -0.0083086397
12.593684 -31.602594 -0.010227688
20.404011 -32.110802 -0.0034102574
20.440454 -32.091568 -0.013934403
20.484625 -32.099945 -0.0076578502
12.420612 -31.553757 -0.0068288837
12.448876 -31.560812 -0.0034878496
12.500249 -31.547602 -0.0081918444
12.559894 -31.544722 -0.0085314009
12.599955 -31.569992 -0.011785699
20.442257 -32.034081 -0.0089004301
20.493704 -32.051575 -0.0091359597
12.568424 -31.508974 -0.0044997074
12.604922 -31.506433 -0.0075337961
12.638613 -31.497988 -0.026421253
20.441462 -31.990374 -0.016800787
20.48884 -32.001148 -0.011198152
12.561749 -31.44668 -0.0031503774
12.603498 -31.462862 -0.011512814
19.010586 -31.847416 -0.01009436
19.037796 -31.844767 -0.023440814
20.416718 -31.929354 -0.011323927
20.445089 -31.944727 -0.010800266
20.470943 -31.946032 -0.0063210838
12.5381 -31.393402 0.012270214
12.562181 -31.406502 -0.0068728495
12.600984 -31.405678 -0.01283036
18.946682 -31.79915 -0.01105423
18.988829 -31.790537 -0.0073501449
19.025787 -31.827925 0.014241189
20.353466 -31.861252 -0.032976851
20.409756 -31.88994 -0.0015945453
20.452198 -31.915215 -0.0083172368
20.499132 -31.904846 -0.010195578
12.53234 -31.341284 0.0050313836
12.574257 -31.355894 -0.005355645
12.597211 -31.36412 -0.023932558
18.952433 -31.753454 -0.017330453
18.981419 -31.748497 -0.012437213
19.785217 -31.802921 0.0019021016
20.346519 -31.837883 -0.0072900159
20.404285 -31.83836 -0.0090542305
20.446175 -31.848783 0.0033850763
12.539357 -31.298296 0.0019324385
12.574537 -31.30776 -0.006435886
12.60463 -31.309526 -0.016407525
19.006874 -31.71034 -0.016290147
19.065718 -31.698732 -0.015097858
19.103884 -31.693689 -0.0077353129
19.759356 -31.761246 0.0094637107
19.802475 -31.761454 2.4401583e-05
20.376331 -31.801336 -0.028670669
20.378563 -31.798651 0.0079759527
12.536469 -31.248655 -0.0043625869
12.576265 -31.258961 -0.007628236
12.602086 -31.259438 -0.029344268
19.01016 -31.640978 -0.0046365336
19.06678 -31.654861 -0.01492059
19.103548 -31.65419 -0.011713153
19.151772 -31.668427 -0.00012957677
20.377462 -31.747679 0.00636438
20.401846 -31.75012 -0.018918287
20.455509 -31.764017 0.0041368902
12.547507 -31.193556 0.0085228281
12.571222 -31.204035 -0.0097642895
12.606662 -31.212629 -0.017950948
19.027174 -31.620678 -0.0051811356
19.068689 -31.604389 -0.013723606
19.110691 -31.614014 -0.01035407
19.141211 -31.589813 0.0089538116
12.540411 -31.152565 -0.0018871576
12.572124 -31.157574 -0.01021746
12.604501 -31.149509 -0.024081646
19.056517 -31.558676 -0.016130822
19.11846 -31.552486 -0.003165829
19.165216 -31.561077 -0.0028538872
12.546519 -31.102623 -0.0019041467
12.572035 -31.108486 -0.012546506
18.941 -31.473579 -0.014938197
18.975775 -31.494101 -0.014814371
19.008354 -31.501465 -0.0041262349
19.089785 -31.509153 -0.012156103
19.106197 -31.523758 -0.0089228731
12.546981 -31.053452 -0.0021720454
12.571362 -31.057072 -0.01492779
12.608301 -31.077597 -0.032454282
18.94541 -31.470329 0.013405863
18.975445 -31.451595 -0.010985133
19.013279 -31.451767 -0.0093947165
19.06942 -31.467648 -0.0041553807
19.112717 -31.468943 0.00040404499
12.55182 -31.000809 -0.0035861097
12.570642 -31.007631 -0.016498251
18.932369 -31.387003 -0.011027755
18.981766 -31.400539 -0.0094877388
19.023024 -31.40683 -0.0045557469
12.553778 -30.95039 -0.0038390439
12.571589 -30.954998 -0.01862484
18.953104 -31.349016 -0.0326331
18.983301 -31.348064 -0.013061466
19.006054 -31.364294 -0.010660283
19.085526 -31.367001 -0.013216471
19.133017 -31.340721 -0.027692061
12.552902 -30.90662 -0.0030602366
12.583444 -30.907736 -0.017644865
19.001184 -31.296953 -0.02913144
19.033941 -31.320374 -0.0172949
19.08569 -31.294281 -0.0154515
19.120924 -31.302979 -0.0023407508
19.156942 -31.329184 -0.0036603697
12.555284 -30.850368 -0.0056149159
12.576479 -30.856884 -0.020303944
19.03565 -31.260553 -0.019350002
19.090565 -31.270226 -0.0030730516
19.133366 -31.253639 -0.0083647976
19.162533 -31.268215 0.0057774978
12.551614 -30.797441 -0.0082498807
12.588643 -30.817301 -0.016982535
19.037458 -31.190243 -0.0040357932
19.089125 -31.209688 -0.010997602
19.125845 -31.215641 -0.020333949
19.181986 -31.190189 0.0088767
12.363485 -30.73488 -0.0070434045
12.526327 -30.763292 0.010072674
12.557475 -30.760059 -0.0068029873
12.585513 -30.757902 -0.01854484
18.957157 -31.134485 -0.019540377
18.984316 -31.145746 -0.0097218826
19.054893 -31.143465 -0.013849513
19.086473 -31.148975 -0.01267477
19.138903 -31.173275 -0.0087402724
19.170961 -31.167786 0.0066408776
12.561904 -30.70911 -0.0029630791
12.592918 -30.710541 -0.016707726
12.661642 -30.694202 -0.012330713
18.957817 -31.092817 -0.015374089
18.980642 -31.098431 -0.010134813
19.065151 -31.113632 -0.018779185
19.09458 -31.118958 -0.002865918
12.565404 -30.677185 -0.0025418736
18.89325 -31.063139 -0.011054005
18.96051 -31.052864 -0.009532732
18.979118 -31.047405 -0.0090071764
19.049009 -31.073896 -0.011686386
19.087357 -31.078724 -0.0076064281
18.956696 -31.002382 -0.012800612
18.992355 -31.01269 -0.011916136
18.940889 -30.962322 -0.0075093228
12.593937 -32.799927 0.038723759
12.636504 -32.800514 0.04229518
12.501572 -32.761387 0.060968667
12.51099 -32.764664 0.038207337
12.586009 -32.754253 0.03991691
12.608807 -32.782219 0.039818816
12.541905 -32.711151 0.043051116
12.580194 -32.705296 0.043617453
12.609995 -32.714138 0.02555009
12.538465 -32.650928 0.049146809
12.577281 -32.66721 0.041705444
12.545153 -32.607182 0.044993464
12.584079 -32.610382 0.043023836
12.617574 -32.630154 0.026135549
12.545907 -32.543381 0.045742769
12.58347 -32.56329 0.037101015
12.562798 -32.505646 0.047167573
12.585024 -32.510345 0.040387295
12.620965 -32.520199 0.024606893
12.560483 -32.448467 0.044390626
12.587687 -32.458645 0.036715157
12.523049 -32.427734 0.060349867
12.56181 -32.404877 0.044687208
12.595036 -32.415981 0.038300253
19.001558 -32.799423 0.039836194
19.036596 -32.801552 0.044017054
19.099398 -32.809322 0.033406325
19.127768 -32.814331 0.042290505
19.182934 -32.824421 0.046114396
12.561707 -32.363968 0.044822596
12.598166 -32.355888 0.039793879
19.000914 -32.752621 0.0409353
19.029526 -32.763393 0.037428021
19.08046 -32.763657 0.044737872
19.136793 -32.769737 0.034456957
19.170523 -32.768147 0.047176033
12.518273 -32.32206 0.045969442
12.567608 -32.303722 0.043112032
12.587511 -32.304276 0.035474926
18.950768 -32.695412 0.035372436
18.993343 -32.707306 0.040859804
19.022903 -32.720737 0.031648256
19.099445 -32.688335 0.022417368
12.553435 -32.258434 0.045327403
12.594376 -32.256989 0.040393829
18.968493 -32.665695 0.030123733
19.001114 -32.654724 0.039146014
19.048214 -32.655556 0.035554782
19.087372 -32.66053 0.041186854
19.1318 -32.660378 0.026841056
12.570556 -32.210678 0.043204516
12.590569 -32.208576 0.030517731
19.056274 -32.600616 0.037036046
19.104019 -32.600483 0.043440692
19.148531 -32.60717 0.047178179
12.532407 -32.154957 0.042009082
12.573442 -32.154732 0.041799627
12.607864 -32.180592 0.033955164
19.113153 -32.559834 0.040659606
19.148893 -32.562546 0.039790615
19.191881 -32.576214 0.041213773
12.539772 -32.092701 0.053889148
12.573203 -32.098225 0.040679418
12.600626 -32.109234 0.02436473
19.101919 -32.516125 0.036837887
19.138859 -32.51722 0.041760001
12.543674 -32.073597 0.057976361
12.576702 -32.048283 0.0415892
18.966671 -32.44186 0.040078886
19.015087 -32.438175 0.043418176
19.071535 -32.464352 0.036245413
19.109165 -32.460426 0.038635783
19.14954 -32.463055 0.041966636
19.197224 -32.480282 0.062988721
12.528526 -31.990351 0.045880079
12.57249 -31.998266 0.042407505
12.60455 -32.018211 0.026054919
18.973568 -32.405556 0.036105551
19.008507 -32.400696 0.04825785
19.116514 -32.403896 0.04233969
19.17058 -32.431747 0.036193058
12.582287 -31.958975 0.041672569
12.615055 -31.952856 0.040382765
18.974327 -32.347832 0.042842478
18.999451 -32.356766 0.039535604
19.074409 -32.377796 0.040483549
12.450436 -31.890232 0.041434661
12.464117 -31.884634 0.042382315
12.550029 -31.903032 0.040124528
12.580993 -31.917246 0.042592876
12.614267 -31.892622 0.031231653
18.96945 -32.323273 0.048123002
12.440433 -31.843904 0.043899857
12.478172 -31.839729 0.040481243
12.585392 -31.863892 0.047582299
12.609009 -31.877928 0.032294732
12.445669 -31.79649 0.042364009
12.467899 -31.817835 0.042333983
12.443169 -31.75057 0.040639013
12.480492 -31.763462 0.033738263
12.416785 -31.687792 0.025133189
12.435769 -31.696802 0.042885639
12.484491 -31.692917 0.041463945
12.442597 -31.647762 0.041890778
12.492912 -31.633755 0.048911523
20.416761 -32.135162 0.040306874
20.460663 -32.140617 0.049834237
12.419586 -31.581295 0.047736317
12.431982 -31.600925 0.041518379
12.49703 -31.579693 0.044760302
12.554173 -31.595963 0.042442318
20.403076 -32.090908 0.043160267
20.432863 -32.08078 0.031635404
20.481064 -32.090553 0.038469054
12.421908 -31.558195 0.044093534
12.444033 -31.55599 0.041125495
12.552248 -31.547859 0.032630429
12.588078 -31.566706 0.037511572
20.442062 -32.038544 0.037417091
20.492924 -32.052776 0.040303927
12.449769 -31.476318 0.053616863
12.562039 -31.505526 0.043614358
12.595366 -31.503195 0.035388447
20.411793 -32.001907 0.035862237
20.440784 -31.983288 0.037202723
20.487455 -31.997871 0.044529594
12.531037 -31.438326 0.050655648
12.566422 -31.456232 0.043469921
12.591413 -31.456566 0.025514185
19.032042 -31.842676 0.050019793
20.412539 -31.926973 0.043595251
20.447319 -31.939903 0.040095601
20.477171 -31.933266 0.042235248
12.528443 -31.400503 0.040883914
12.557554 -31.401499 0.041975364
12.591596 -31.400932 0.041001312
18.949066 -31.796926 0.042265933
18.996916 -31.790928 0.039079376
19.03281 -31.824957 0.042374469
20.365459 -31.89176 0.020342937
20.421854 -31.885857 0.035670705
20.443703 -31.89852 0.040854458
20.49662 -31.901741 0.044927832
12.521432 -31.337133 0.043898683
12.559828 -31.358549 0.042549469
18.956572 -31.751015 0.035724498
18.984709 -31.748354 0.035806902
19.767918 -31.803522 0.016134359
20.361431 -31.837797 0.03691544
20.409929 -31.830595 0.038863666
20.457373 -31.83606 0.038162291
12.532038 -31.296923 0.048747048
12.561329 -31.310356 0.041304942
12.593422 -31.33169 0.019717311
19.006554 -31.719219 0.036375482
19.05872 -31.694881 0.034402713
19.109001 -31.697342 0.04022184
19.788355 -31.76129 0.023127832
20.316065 -31.796547 0.017892014
20.366302 -31.80451 0.039346885
20.398762 -31.781307 0.04572371
20.454668 -31.775129 0.062868766
12.527575 -31.249872 0.0455667
12.557388 -31.259361 0.037631184
19.031996 -31.652855 0.040106565
19.060457 -31.664616 0.03337726
19.117653 -31.670536 0.048569307
19.163761 -31.662582 0.035536572
19.188425 -31.670902 0.053273946
20.362791 -31.736559 0.047421414
20.409092 -31.743771 0.025958745
20.45532 -31.761713 0.040821586
12.538984 -31.198505 0.047306467
12.565173 -31.210035 0.035469089
19.024855 -31.619658 0.036317881
19.04978 -31.604031 0.020359976
19.116226 -31.617945 0.035097912
19.163391 -31.590509 0.036023967
12.535763 -31.15531 0.043476135
12.565597 -31.158087 0.036034286
19.068684 -31.554314 0.028099339
19.118519 -31.561104 0.038928762
19.166237 -31.557743 0.047223452
12.503337 -31.124832 0.062011003
12.539281 -31.104139 0.041809484
12.567487 -31.110641 0.039659072
18.982763 -31.484634 0.03889988
19.018799 -31.503798 0.035252545
19.11618 -31.516405 0.034769412
19.15097 -31.518661 0.046442039
12.540278 -31.052948 0.041453458
12.566287 -31.062807 0.035200614
18.976604 -31.446178 0.039123915
19.015823 -31.446218 0.042402439
19.051916 -31.457588 0.045470968
19.127405 -31.466639 0.032759015
19.15316 -31.484282 0.050865836
12.506121 -31.003981 0.058330249
12.541644 -31.000643 0.040515617
18.943516 -31.378437 0.0417317
18.986668 -31.392656 0.039115861
19.018795 -31.41073 0.030757286
12.538901 -30.95141 0.042722598
18.949961 -31.369099 0.05950734
18.979216 -31.340612 0.042717449
19.013723 -31.362833 0.031802963
19.13706 -31.364882 0.030476674
12.516556 -30.905426 0.039788216
12.542271 -30.903946 0.042102762
12.578919 -30.893505 0.033931255
19.028971 -31.319422 0.037722085
19.096535 -31.302895 0.026511976
19.12863 -31.299419 0.040340692
12.520514 -30.830095 0.039672591
12.545066 -30.854006 0.040842552
12.576434 -30.834517 0.016949309
19.048996 -31.264151 0.03471747
19.084593 -31.278318 0.044541933
19.124039 -31.255581 0.043891568
19.159903 -31.245953 0.020238351
12.518753 -30.793941 0.046688773
12.544172 -30.802034 0.040341925
12.574729 -30.82077 0.024288021
19.029697 -31.190578 0.039416336
19.092613 -31.204462 0.033989068
19.131294 -31.20697 0.037679549
12.360364 -30.731152 0.040372469
12.518574 -30.762383 0.042106606
12.549643 -30.758057 0.040569365
18.984707 -31.142036 0.039155662
19.053751 -31.13307 0.033582877
19.096687 -31.145859 0.042675558
19.143093 -31.15917 0.034737233
19.181007 -31.167805 0.036275063
12.53064 -30.702877 0.065798633
12.556603 -30.710119 0.041691422
12.584579 -30.705172 0.028100677
12.649325 -30.693069 0.019358246
18.987247 -31.10033 0.043294847
19.043846 -31.119436 0.05407612
19.091005 -31.116722 0.03580204
12.555077 -30.672079 0.042626515
18.905081 -31.055378 0.0308594
18.958044 -31.045399 0.037537552
18.980347 -31.04863 0.03829154
19.051983 -31.06959 0.045999661
19.0947 -31.075684 0.035601638
18.956266 -30.998709 0.036820449
18.992125 -31.008804 0.042477939
18.939363 -30.959492 0.048816532
12.57712 -32.794338 0.090408497
12.616673 -32.799793 0.097006522
12.496627 -32.758728 0.085708186
12.542993 -32.769302 0.097788677
12.5748 -32.75808 0.089998335
12.531249 -32.706192 0.092994735
12.573957 -32.709892 0.088146426
12.502792 -32.644974 0.10023812
12.550048 -32.660435 0.096105054
12.57261 -32.663895 0.088127762
12.504941 -32.59708 0.1023138
12.545188 -32.605778 0.093927652
12.578101 -32.611858 0.086868159
12.508114 -32.537865 0.090281337
12.550879 -32.552246 0.092755929
12.573418 -32.563248 0.089813963
12.507095 -32.527508 0.10368975
12.553721 -32.504627 0.09237209
12.590818 -32.513493 0.087556705
12.490417 -32.429756 0.097538531
12.549706 -32.448727 0.094184265
12.578695 -32.462063 0.084750473
12.506653 -32.424683 0.094749853
12.552861 -32.404709 0.092296287
12.583488 -32.423309 0.091338806
19.002954 -32.824158 0.081663318
19.040998 -32.802883 0.096128196
19.136532 -32.810696 0.088172249
19.195745 -32.808918 0.075252905
12.521496 -32.365608 0.09869986
12.552601 -32.362309 0.092788465
12.588725 -32.351616 0.089792058
19.002884 -32.751579 0.092227936
19.033689 -32.760975 0.085667685
19.080332 -32.767452 0.090979889
19.149956 -32.764812 0.094721541
19.17518 -32.774406 0.073127031
12.501573 -32.315178 0.094257928
12.556877 -32.302013 0.090306863
18.959602 -32.687363 0.090641156
18.999161 -32.706024 0.090929888
19.025463 -32.718708 0.092479393
12.528215 -32.250526 0.098820291
12.56475 -32.258335 0.09056893
12.589472 -32.252739 0.072963059
18.994537 -32.656517 0.087942272
19.051678 -32.656857 0.091686413
19.096979 -32.662891 0.094823711
19.141081 -32.65477 0.072049141
12.532541 -32.200359 0.097260624
12.559902 -32.208626 0.090763234
18.977983 -32.608517 0.079756878
19.029181 -32.619835 0.090147972
19.106606 -32.607388 0.084869161
19.1443 -32.599625 0.090596043
12.529573 -32.146191 0.089075491
12.561005 -32.156677 0.091537006
12.598947 -32.182358 0.087292291
19.11821 -32.547909 0.09174867
19.139137 -32.567711 0.078723334
19.187592 -32.567383 0.081400558
12.528121 -32.089024 0.095157288
12.560969 -32.100868 0.091718882
19.119904 -32.505371 0.086224265
19.16099 -32.510929 0.078806974
19.181999 -32.517551 0.069643378
12.532772 -32.062534 0.097381517
12.560672 -32.045113 0.090835609
18.9781 -32.436749 0.095676973
19.023317 -32.435745 0.10110673
19.070131 -32.456757 0.085552521
19.108952 -32.447124 0.07952401
19.152351 -32.464321 0.079620704
19.196625 -32.441059 0.070983216
12.497694 -31.981388 0.11020814
12.539088 -31.992094 0.095688447
12.564898 -32.003506 0.085579641
18.968857 -32.399651 0.091431461
19.006538 -32.399193 0.09465228
19.103838 -32.389393 0.08272323
19.162571 -32.415031 0.080996506
12.546117 -31.962093 0.1035998
12.574955 -31.955742 0.089420855
18.969299 -32.346909 0.087123312
19.001095 -32.355957 0.086555406
19.0676 -32.375683 0.089604229
12.447753 -31.891731 0.090871625
12.462735 -31.883924 0.09386088
12.550605 -31.911983 0.094679147
12.581906 -31.909758 0.092159696
18.973358 -32.319767 0.089786015
12.441716 -31.847372 0.090844944
12.483466 -31.844561 0.095776185
12.593232 -31.876364 0.091606066
12.411055 -31.78821 0.11358827
12.440543 -31.797785 0.089121744
12.470447 -31.814953 0.092078432
12.440148 -31.751383 0.09129262
12.480961 -31.762905 0.086382553
12.42036 -31.674522 0.10410061
12.438226 -31.699234 0.089791961
12.473267 -31.697823 0.097573802
12.421632 -31.645456 0.10485165
12.438931 -31.646736 0.087223098
12.472702 -31.657314 0.092473954
20.436476 -32.137646 0.08699102
20.460424 -32.138336 0.086866274
12.422261 -31.59387 0.092973962
12.43186 -31.59787 0.09081313
12.484126 -31.577929 0.092894368
12.542384 -31.585621 0.096434437
20.400478 -32.106026 0.087966502
20.437544 -32.08931 0.083994299
20.484875 -32.087971 0.087513015
20.513763 -32.106712 0.10644195
12.422967 -31.562346 0.096009731
12.44615 -31.548758 0.090011589
12.481277 -31.531885 0.11457194
12.555032 -31.54604 0.093149379
12.579029 -31.566654 0.072861567
20.440935 -32.037605 0.087075949
20.486149 -32.041813 0.089592718
12.448492 -31.47464 0.084776908
12.523028 -31.509951 0.090047076
12.556104 -31.503965 0.091515698
12.593833 -31.497787 0.091262087
20.413395 -31.998301 0.091173232
20.446056 -31.993168 0.091657199
20.4883 -31.995447 0.081403464
12.444809 -31.472797 0.10962749
12.518497 -31.442129 0.09207274
12.555517 -31.456869 0.089851476
19.033045 -31.839146 0.093086243
20.411343 -31.91707 0.10085095
20.441669 -31.938667 0.089205727
20.480373 -31.934132 0.098021746
12.520602 -31.395269 0.093640313
12.557572 -31.402222 0.090756744
18.955416 -31.801105 0.091970377
18.995272 -31.79254 0.08916384
19.031803 -31.806797 0.08577913
20.419485 -31.883097 0.083301239
20.448847 -31.894653 0.088703759
20.490412 -31.903561 0.1019361
12.523163 -31.344076 0.095801003
12.54576 -31.365097 0.081410252
18.957106 -31.749096 0.090359956
18.992062 -31.759068 0.092671841
19.037218 -31.749895 0.10101789
20.393627 -31.828268 0.08538647
20.443804 -31.836941 0.090639472
12.53128 -31.304623 0.092704311
12.554065 -31.314785 0.086566165
19.003569 -31.711143 0.088641427
19.048639 -31.712076 0.082988709
19.113905 -31.693316 0.072285965
19.139099 -31.700375 0.074323207
20.37122 -31.809694 0.064704724
20.397364 -31.795856 0.097311713
20.441345 -31.794691 0.092671342
12.493172 -31.231482 0.10149356
12.531162 -31.255527 0.093102157
12.551489 -31.269169 0.082274973
19.029537 -31.649792 0.082511023
19.056046 -31.645807 0.089064449
19.090675 -31.668142 0.1015852
19.152893 -31.658663 0.070696726
20.357964 -31.745758 0.094032697
20.410416 -31.756685 0.086284131
20.447449 -31.76018 0.077849843
12.493701 -31.221533 0.10867192
12.525434 -31.203852 0.092368118
12.562634 -31.213972 0.090888903
19.077085 -31.630415 0.089045227
19.109312 -31.613468 0.074134797
19.158613 -31.602747 0.071262322
12.495257 -31.129126 0.09365426
12.525324 -31.155766 0.091689527
12.558209 -31.157429 0.084133036
19.021673 -31.532372 0.096480697
19.051382 -31.539335 0.0838525
19.096489 -31.57527 0.078826725
19.180157 -31.561583 0.069418333
12.500855 -31.122881 0.085522458
12.525129 -31.103607 0.091408364
12.55816 -31.114143 0.090058424
18.992399 -31.480385 0.098184094
19.015661 -31.504339 0.082317278
19.061779 -31.509087 0.094250962
19.114159 -31.516628 0.072995052
12.529382 -31.054388 0.092576198
12.559805 -31.07494 0.068172991
18.975832 -31.450987 0.089476414
19.01931 -31.448107 0.090338126
12.504529 -30.999296 0.096636206
12.529018 -31.005903 0.09092766
18.989214 -31.396122 0.079615295
19.018517 -31.403955 0.09107729
12.512654 -30.94478 0.10883659
12.525852 -30.949261 0.086111948
18.976637 -31.363791 0.087543592
19.007313 -31.365726 0.095639005
20.794464 -31.465317 0.11372385
20.816227 -31.470802 0.11345826
12.509433 -30.899551 0.099104784
12.534759 -30.900423 0.084824547
18.994972 -31.321665 0.098689958
19.012148 -31.314175 0.071569823
19.057972 -31.291145 0.084266171
19.12742 -31.302572 0.072788596
12.514279 -30.847094 0.10253698
12.532234 -30.856281 0.087402254
19.056896 -31.245981 0.0679629
19.087149 -31.258255 0.079371743
19.112972 -31.270273 0.078468092
12.512005 -30.800354 0.091726586
12.536188 -30.807312 0.086657256
18.981401 -31.189686 0.079840571
19.017326 -31.19363 0.06855531
19.093019 -31.197701 0.075902365
19.132442 -31.203962 0.076954439
12.354369 -30.731113 0.093080476
12.517739 -30.755709 0.093749911
12.541554 -30.755407 0.088612035
18.99564 -31.147646 0.090299204
19.050522 -31.140356 0.086596765
19.075571 -31.162188 0.085902683
19.151342 -31.150383 0.066450663
12.369328 -30.71736 0.080200404
12.526764 -30.702213 0.10019487
12.544265 -30.709631 0.089014888
18.991478 -31.101892 0.092658013
19.044237 -31.110035 0.082284473
19.093557 -31.124424 0.079672948
12.545112 -30.666353 0.092754021
18.95479 -31.042715 0.08787819
18.985668 -31.04845 0.090596534
19.048584 -31.067595 0.089099586
18.954746 -30.994497 0.0897066
18.989861 -31.004705 0.094316423
18.937473 -30.957462 0.090900049
12.545174 -32.815334 0.15741691
12.57693 -32.796635 0.14368196
12.603676 -32.799664 0.127737
12.54104 -32.75824 0.14594026
12.56528 -32.758797 0.13666311
12.497854 -32.702393 0.14252886
12.537374 -32.711277 0.14037341
12.564542 -32.701038 0.13666534
12.487107 -32.640244 0.14478233
12.540825 -32.661839 0.14380005
12.572621 -32.645943 0.13404056
12.497255 -32.592274 0.14363541
12.540594 -32.604755 0.1421181
12.570112 -32.621315 0.13603853
12.491338 -32.53289 0.14122723
12.540224 -32.554859 0.14286728
12.491097 -32.522755 0.14798941
12.539694 -32.50523 0.14222567
12.579725 -32.518028 0.13470082
12.516548 -32.431747 0.14557412
12.541289 -32.460449 0.1405735
12.472284 -32.420959 0.16013704
12.499288 -32.418392 0.14524169
12.547479 -32.411877 0.14395981
12.575521 -32.422112 0.12859933
19.00803 -32.820599 0.13734792
19.042883 -32.797924 0.13989329
19.113691 -32.789433 0.11609271
19.122812 -32.797218 0.13323227
12.514358 -32.357868 0.14454943
12.551093 -32.361107 0.14198563
12.579882 -32.358547 0.12658069
19.002937 -32.749809 0.13497233
19.034208 -32.754303 0.14092666
19.085732 -32.778362 0.14924255
12.472095 -32.304722 0.15126985
12.521368 -32.306332 0.14604047
12.543517 -32.303577 0.13626741
19.006121 -32.706661 0.13935243
19.027615 -32.708744 0.13805355
12.515106 -32.249947 0.14574924
12.554139 -32.259212 0.13999078
18.99329 -32.657604 0.13375854
19.054951 -32.659939 0.12792325
19.076168 -32.65871 0.15017587
12.525951 -32.202965 0.14476019
12.548411 -32.205368 0.13858704
19.017572 -32.623669 0.12715095
19.061722 -32.620926 0.11806788
12.52078 -32.149437 0.14176059
12.557475 -32.15897 0.13893697
12.494468 -32.083485 0.1624482
12.527494 -32.092064 0.14359981
12.55099 -32.106815 0.13816255
12.494586 -32.077309 0.16336383
12.533297 -32.048706 0.14361611
12.551119 -32.042973 0.13578601
19.007439 -32.431755 0.13972762
19.05183 -32.450233 0.13436836
19.109123 -32.47443 0.12487384
20.874081 -32.581024 0.16244562
12.532711 -31.998203 0.14136332
12.566858 -32.011238 0.13988853
18.970697 -32.392078 0.14046437
19.00873 -32.396069 0.13969727
19.071751 -32.421043 0.1315573
19.098616 -32.390144 0.12513016
12.536988 -31.960239 0.14350656
12.572759 -31.954037 0.14024754
18.978701 -32.339176 0.13881502
19.009174 -32.349892 0.13677324
19.078024 -32.374813 0.11960098
12.445002 -31.890471 0.13601565
12.472317 -31.882803 0.13553755
12.54331 -31.909472 0.14480111
12.578242 -31.905434 0.1419915
18.980515 -32.31525 0.13224033
19.022518 -32.327919 0.14448634
12.439878 -31.843754 0.14140436
12.483732 -31.855833 0.13860592
12.525684 -31.853012 0.15211168
12.584029 -31.874866 0.1392995
12.428325 -31.789261 0.14023808
12.485314 -31.815088 0.13509037
12.533037 -31.810503 0.15161192
12.565351 -31.781651 0.16266499
12.439323 -31.746185 0.13928625
12.477688 -31.759354 0.1454713
12.542119 -31.74905 0.13711283
12.590655 -31.76103 0.15437332
12.418528 -31.673702 0.12284408
12.438442 -31.698101 0.13937679
12.492223 -31.698225 0.13583426
12.540841 -31.705818 0.13949588
12.581458 -31.713171 0.15287371
12.420571 -31.637671 0.12343805
12.443953 -31.648804 0.13953885
12.488772 -31.659185 0.15854001
12.565291 -31.6518 0.15162306
12.591847 -31.653069 0.14969167
20.437965 -32.133949 0.13068716
20.473364 -32.134773 0.14182335
20.541641 -32.127327 0.16472577
12.422531 -31.60453 0.12916347
12.441793 -31.600487 0.14750431
12.506747 -31.585384 0.14742452
12.529435 -31.588509 0.12665001
12.586097 -31.620167 0.15504803
20.408319 -32.067673 0.12708299
20.447445 -32.083412 0.13970429
20.477171 -32.084686 0.13844624
20.525211 -32.108765 0.13780551
12.42059 -31.555304 0.13401669
12.45404 -31.556299 0.14226574
12.509006 -31.550774 0.14587507
12.554001 -31.566591 0.14978573
20.435843 -32.047462 0.13786054
20.489157 -32.043755 0.13889445
12.514006 -31.498634 0.14815934
12.548915 -31.505447 0.14103331
12.585141 -31.496861 0.13793476
20.410055 -31.996704 0.12852591
20.444155 -31.994047 0.13907471
20.488146 -31.986155 0.14232014
12.456277 -31.473289 0.13374031
12.509727 -31.443451 0.14086981
12.548206 -31.467947 0.1372816
20.406933 -31.922518 0.1362218
20.443748 -31.943296 0.13741112
20.480759 -31.933475 0.14103843
12.481462 -31.387541 0.14924683
12.514599 -31.395617 0.14250071
12.565354 -31.398539 0.13809511
18.96944 -31.794498 0.12420917
19.005241 -31.798805 0.13097151
19.037649 -31.788088 0.14270771
20.407101 -31.882212 0.13893391
20.444536 -31.893988 0.14038952
20.520535 -31.896454 0.13787939
12.487849 -31.340622 0.15349171
12.521169 -31.348948 0.13843185
18.963356 -31.750858 0.12676808
18.999678 -31.760321 0.13429821
20.368227 -31.825771 0.12687679
20.411097 -31.836737 0.11550131
20.446095 -31.833254 0.14292486
12.492175 -31.28554 0.15049596
12.522751 -31.306782 0.13966438
12.551573 -31.292744 0.12933223
19.004797 -31.716305 0.13347548
20.367565 -31.791597 0.12599215
20.41419 -31.789618 0.1486157
20.441469 -31.794247 0.14094494
20.479805 -31.807745 0.14722362
12.486281 -31.247952 0.13712186
12.520047 -31.255745 0.14301489
20.359148 -31.743156 0.13556252
20.409138 -31.758331 0.13479902
20.438463 -31.756441 0.15169482
12.485197 -31.217197 0.15000479
12.516492 -31.202194 0.14101821
12.553458 -31.220657 0.13057196
12.496134 -31.156803 0.15081656
12.516744 -31.151808 0.13793746
12.555993 -31.172546 0.14743876
12.493256 -31.10611 0.15157931
12.518464 -31.102875 0.13713844
12.556367 -31.119192 0.11937306
18.987 -31.48052 0.12183371
19.019373 -31.505331 0.12423
19.04785 -31.493111 0.12999761
12.502609 -31.048588 0.14752667
12.522431 -31.055704 0.13802569
18.987072 -31.439188 0.1364598
19.028183 -31.446806 0.13014165
20.832293 -31.577909 0.16396208
20.848698 -31.555748 0.16330469
12.457175 -31.004654 0.16282813
12.499119 -30.994154 0.14449678
12.519038 -31.010611 0.13478847
18.982841 -31.404024 0.11739916
19.014843 -31.403221 0.1342072
20.796761 -31.49402 0.14574976
20.817478 -31.525728 0.14163664
12.501746 -30.950996 0.14557023
12.522421 -30.951004 0.13203524
18.987913 -31.359613 0.13241471
19.007214 -31.371019 0.12921385
20.821142 -31.459457 0.14437589
20.852121 -31.449528 0.149764
12.501471 -30.900856 0.13998194
12.53222 -30.905397 0.13716136
20.779881 -31.423944 0.14587574
20.820673 -31.426546 0.15028073
12.505356 -30.853163 0.14416358
12.526446 -30.855556 0.13495202
20.78606 -31.38512 0.14299405
12.473339 -30.781689 0.15967873
12.500505 -30.800705 0.14127056
12.529699 -30.804405 0.11895269
12.363409 -30.717611 0.11868721
12.474338 -30.759165 0.16539587
12.508139 -30.755358 0.14142521
12.536645 -30.746468 0.13441472
18.989418 -31.14843 0.13271338
19.022476 -31.138578 0.14133382
12.36698 -30.705297 0.14153127
12.406734 -30.690462 0.1602165
12.52111 -30.710766 0.14202595
12.537084 -30.7024 0.13072708
18.990608 -31.102419 0.12882447
19.03665 -31.113573 0.13010283
12.526754 -30.657652 0.15047745
12.536304 -30.66172 0.12719552
18.957891 -31.034895 0.14023392
18.984991 -31.045824 0.13645075
19.039246 -31.04578 0.13096523
20.894503 -31.151026 0.15324192
18.957834 -30.995663 0.1414113
18.995586 -31.003748 0.14372768
20.901402 -31.112181 0.15795612
18.941519 -30.960436 0.1350442
20.869329 -31.006849 0.15892777
20.829493 -30.984211 0.16287336
12.446377 -32.801876 0.17841563
12.470518 -32.807751 0.197606
12.529392 -32.814476 0.19679824
12.574273 -32.799389 0.197597
12.534803 -32.754082 0.19279699
12.562634 -32.779453 0.17510381
12.482491 -32.699291 0.18916886
12.531052 -32.704185 0.19411823
12.458535 -32.631958 0.21645625
12.483838 -32.641846 0.1997402
12.529438 -32.659706 0.19041814
12.564635 -32.641071 0.16869387
12.49479 -32.595276 0.19544196
12.530492 -32.605804 0.18976088
12.468224 -32.527657 0.18309458
12.503435 -32.541203 0.19785142
12.525378 -32.555676 0.1865789
12.462571 -32.525139 0.20273125
12.503536 -32.504208 0.19849968
12.536082 -32.507172 0.18964127
12.571636 -32.527916 0.17156239
12.51069 -32.450378 0.19676194
12.535758 -32.461487 0.18309273
12.461195 -32.412231 0.19563551
12.511784 -32.404682 0.19463614
12.539968 -32.421818 0.18928823
19.055599 -32.787563 0.17841038
12.507209 -32.361187 0.1913349
12.549443 -32.355011 0.19529274
19.003584 -32.759407 0.16984935
19.03293 -32.743114 0.17785393
12.47016 -32.300312 0.19500753
12.515834 -32.305424 0.19306892
12.539778 -32.296993 0.18000457
18.997211 -32.683815 0.16585173
19.029499 -32.701641 0.17961277
20.860849 -32.815964 0.1890281
20.888567 -32.817181 0.19200407
12.482421 -32.23658 0.2004458
12.511655 -32.252926 0.19529659
12.542982 -32.257931 0.18647948
20.861475 -32.769669 0.20142828
20.8797 -32.761589 0.21448998
12.48343 -32.184418 0.20752059
12.519037 -32.204777 0.19121614
12.542785 -32.196568 0.17495632
20.809725 -32.691261 0.20484565
20.849588 -32.716255 0.20840102
20.899427 -32.732674 0.20502253
12.479417 -32.135956 0.18773589
12.519361 -32.150318 0.19205113
12.56372 -32.181385 0.18607374
20.806938 -32.662529 0.20020516
20.843988 -32.687084 0.19511142
20.93103 -32.66951 0.20411155
12.484193 -32.079868 0.18826565
12.522088 -32.101711 0.19214487
12.545417 -32.121796 0.17860375
20.827524 -32.597317 0.19135231
20.845877 -32.625607 0.19306663
20.890066 -32.622181 0.18909734
20.941227 -32.62368 0.20964365
12.484502 -32.067883 0.1964179
12.525801 -32.044567 0.19196822
18.993275 -32.430157 0.16579281
20.855581 -32.57679 0.20524639
20.906923 -32.56892 0.19299231
12.518668 -31.998837 0.19164373
12.55748 -32.018047 0.19027615
19.015478 -32.415779 0.16851878
20.809729 -32.524071 0.19815752
20.863121 -32.514481 0.20121904
20.892321 -32.52219 0.2018636
12.476395 -31.968599 0.2005419
12.524831 -31.95624 0.19187272
12.567997 -31.956806 0.18893316
20.826157 -32.451916 0.19310425
20.874107 -32.467602 0.2001178
20.891472 -32.483654 0.20547925
12.450638 -31.883753 0.16938645
12.47613 -31.888565 0.17703256
12.534892 -31.90452 0.1951735
12.574327 -31.909515 0.19112025
20.825102 -32.422928 0.18829112
20.866947 -32.424622 0.19336578
12.456424 -31.838999 0.20973332
12.493517 -31.848858 0.19224663
12.52386 -31.858919 0.18918604
12.583613 -31.872393 0.19229108
20.869867 -32.371254 0.19650808
20.904634 -32.359924 0.20559628
12.455525 -31.790695 0.18846117
12.494563 -31.800743 0.19153604
12.53104 -31.807682 0.18912782
12.579806 -31.816561 0.1959554
20.788881 -32.308418 0.21001755
20.854462 -32.31284 0.2102721
20.913742 -32.328281 0.21436599
12.453325 -31.745659 0.17718092
12.497815 -31.754837 0.19125703
12.540485 -31.751158 0.19176766
12.582813 -31.746094 0.19209686
20.698395 -32.274845 0.21342875
20.823692 -32.28215 0.20046119
12.455459 -31.690714 0.17363377
12.498248 -31.706699 0.18306066
12.547033 -31.708113 0.18844552
12.587247 -31.714207 0.1989617
12.632058 -31.731375 0.18459338
20.631134 -32.197132 0.21269415
12.463989 -31.642681 0.1822108
12.499425 -31.642372 0.18988562
12.549788 -31.655653 0.19416332
12.58575 -31.661894 0.18561468
20.462034 -32.141144 0.16672434
20.526157 -32.137882 0.19895144
20.577053 -32.145378 0.20427334
12.464915 -31.60165 0.17074209
12.506951 -31.606398 0.19593748
12.54907 -31.613316 0.18690339
12.580782 -31.588959 0.19311741
20.436255 -32.100731 0.17974462
20.494631 -32.100632 0.18150014
20.536333 -32.092392 0.19811687
20.583155 -32.116669 0.17914738
20.623178 -32.107059 0.20438315
12.466229 -31.550465 0.19297811
12.504102 -31.548832 0.19040784
12.552981 -31.566301 0.19049841
20.424742 -32.05584 0.17157021
20.484373 -32.046726 0.1843648
20.539484 -32.061863 0.20273323
20.573013 -32.030682 0.20751143
12.466225 -31.521608 0.20173734
12.518399 -31.495018 0.19573539
12.550082 -31.501806 0.19078706
12.582498 -31.495848 0.16734298
20.43734 -31.989334 0.1786508
20.503778 -31.969938 0.1938169
20.534519 -31.996622 0.19385582
20.579609 -32.007084 0.20309447
12.477107 -31.437735 0.19409233
12.505942 -31.44499 0.19016135
12.550128 -31.460894 0.19165236
20.453388 -31.943199 0.18721727
20.493856 -31.939846 0.18197468
20.531061 -31.931707 0.18579742
20.588629 -31.955944 0.20066103
12.473402 -31.388241 0.19906132
12.504712 -31.394148 0.19034742
12.568081 -31.392757 0.18811034
20.411749 -31.912489 0.17463626
20.445322 -31.896088 0.18154836
20.498356 -31.886429 0.18952182
20.55797 -31.888706 0.20061018
20.605459 -31.896353 0.20689175
12.474309 -31.342512 0.18720448
12.508082 -31.351578 0.19213715
20.465782 -31.838158 0.17804876
20.502176 -31.833124 0.18913977
20.56473 -31.857666 0.20906535
20.581919 -31.846439 0.20570944
12.484411 -31.29598 0.1959523
12.513609 -31.303413 0.18860443
20.397213 -31.767979 0.16982742
20.460835 -31.794987 0.17430064
20.519258 -31.788633 0.20200358
20.540941 -31.783857 0.20097251
12.483371 -31.253475 0.20194472
12.505497 -31.256863 0.18509653
20.496231 -31.760122 0.18919489
12.480556 -31.199827 0.19500175
12.518327 -31.202646 0.18843836
12.450979 -31.168873 0.2076458
12.487267 -31.149708 0.19023266
12.522117 -31.149982 0.18519071
12.560686 -31.170364 0.1760063
12.454944 -31.095049 0.20151757
12.483449 -31.102493 0.19293062
12.51206 -31.103834 0.17038552
20.817089 -31.59412 0.19344521
20.859455 -31.606108 0.19407411
12.491693 -31.056086 0.19322804
12.523342 -31.038404 0.19149606
20.808372 -31.555283 0.18436177
20.857456 -31.560911 0.20386131
20.90773 -31.556595 0.20830186
12.445326 -30.999409 0.1938819
12.483822 -30.99894 0.19267884
20.822399 -31.510828 0.1826037
20.873339 -31.511805 0.18831556
12.488792 -30.954796 0.19017784
12.515031 -30.957989 0.16950011
20.823687 -31.453835 0.19196744
20.866047 -31.461931 0.19967988
20.905668 -31.458889 0.20190491
12.465857 -30.89525 0.19401938
12.495111 -30.902788 0.18981968
12.52758 -30.890087 0.18286039
20.781418 -31.405735 0.19150153
20.824818 -31.427429 0.19560468
20.869368 -31.414003 0.20104294
12.469203 -30.834797 0.21436527
12.492307 -30.85269 0.18911956
20.79138 -31.367853 0.18746091
20.830242 -31.357265 0.196217
20.867941 -31.347504 0.17574421
12.468395 -30.788639 0.19800614
12.488818 -30.802731 0.18843083
20.847864 -31.316845 0.19357648
20.887022 -31.310726 0.19808841
20.920845 -31.334534 0.19230554
12.413815 -30.739977 0.20222244
12.464656 -30.750559 0.20228064
12.496703 -30.753891 0.18872307
12.533402 -30.730537 0.18914178
20.82374 -31.263229 0.19291501
20.876862 -31.259441 0.19100519
20.925501 -31.269693 0.20406242
12.404764 -30.685478 0.19426022
12.453135 -30.682888 0.19316857
12.506694 -30.707283 0.19079827
20.798052 -31.220833 0.21377741
20.83073 -31.219421 0.1940822
20.895937 -31.212959 0.18912823
12.382686 -30.655926 0.17421377
12.417405 -30.65024 0.1899422
12.467846 -30.646185 0.19151542
12.504482 -30.646753 0.19688421
18.961615 -31.039919 0.18012357
18.981293 -31.043209 0.17815466
20.857046 -31.145334 0.17473848
20.887871 -31.16181 0.19410506
12.411927 -30.616631 0.19288926
12.439465 -30.612469 0.20857865
18.95698 -30.994888 0.17384675
18.981337 -30.987629 0.1768129
20.851231 -31.099508 0.18370007
20.885588 -31.113203 0.19520108
18.950706 -30.969322 0.16560028
20.856514 -31.074663 0.18896973
20.887453 -31.061203 0.18853536
20.809032 -31.012831 0.19605725
20.85762 -31.012829 0.18618146
20.884258 -31.03768 0.18627295
20.824509 -30.973677 0.20158251
20.860437 -30.968996 0.18818846
12.486224 -32.805084 0.24099913
12.527312 -32.813763 0.24264029
12.562955 -32.798149 0.24238035
12.495852 -32.75507 0.25329569
12.522804 -32.75325 0.24011266
12.454318 -32.691605 0.26250854
12.4794 -32.699272 0.24038272
12.528686 -32.701954 0.24031058
12.450501 -32.628967 0.24307926
12.501487 -32.661098 0.24461694
12.524137 -32.662727 0.23714121
12.459468 -32.577469 0.23118672
12.498077 -32.601196 0.24218343
12.529256 -32.610817 0.23979428
12.501562 -32.549706 0.24393174
12.537146 -32.546379 0.23677468
12.452903 -32.516235 0.24373128
12.499341 -32.504501 0.24316305
12.52818 -32.502155 0.23456345
12.46806 -32.426575 0.25682369
12.498935 -32.45261 0.24195758
12.523994 -32.451118 0.22154242
12.460516 -32.40704 0.24354751
12.513039 -32.406219 0.23887873
12.535562 -32.418629 0.24328086
12.513104 -32.35696 0.23858441
12.542937 -32.359344 0.2498899
12.477476 -32.297611 0.24467912
12.514896 -32.301064 0.23735192
12.540891 -32.296535 0.25951588
20.86422 -32.827457 0.23659857
20.891071 -32.817089 0.23781887
12.475856 -32.241264 0.24275889
12.51409 -32.25951 0.24226856
20.856318 -32.768425 0.24098596
20.886793 -32.780766 0.24269301
20.926838 -32.773933 0.24717945
12.48009 -32.195633 0.24735707
12.507704 -32.205921 0.23708192
20.866652 -32.710899 0.2481043
20.899048 -32.721313 0.23602906
20.923412 -32.743401 0.23247021
12.470399 -32.13652 0.23577178
12.50948 -32.156994 0.24299639
12.550169 -32.180344 0.23657769
20.816391 -32.653328 0.23711264
20.853249 -32.679462 0.24149983
20.906382 -32.663826 0.23834944
20.943024 -32.688564 0.25021705
12.440255 -32.121685 0.25462592
12.48568 -32.106178 0.24721543
12.511323 -32.104301 0.23840684
20.815807 -32.598427 0.244651
20.860611 -32.61615 0.24143107
20.892494 -32.622009 0.23466407
20.930244 -32.626732 0.23756333
12.473713 -32.055611 0.2466242
12.510977 -32.044571 0.23840733
20.811693 -32.561363 0.2387
20.856434 -32.562122 0.23783602
20.907658 -32.576309 0.23594199
12.492622 -31.998056 0.24521874
12.515733 -32.00452 0.2373635
20.818998 -32.515919 0.2433112
20.86277 -32.51746 0.24852039
20.902016 -32.524883 0.23968007
12.448095 -31.959715 0.24408448
12.489621 -31.95697 0.24572431
12.519657 -31.955317 0.23770232
12.566368 -31.955851 0.23955634
20.838249 -32.445351 0.22819522
20.873692 -32.462883 0.2396626
20.891438 -32.465576 0.23497821
12.484616 -31.8957 0.24375218
12.541981 -31.909475 0.24223861
12.571881 -31.91157 0.23816922
20.827721 -32.408619 0.23341435
20.865299 -32.413815 0.23603611
20.924728 -32.431347 0.24170829
12.446156 -31.84041 0.25254244
12.478823 -31.855059 0.23640631
12.523661 -31.85671 0.2350776
12.583795 -31.871328 0.23985362
20.844736 -32.347061 0.26106137
20.866776 -32.36676 0.24367718
20.904377 -32.366169 0.23645367
12.447886 -31.792669 0.24870969
12.481311 -31.802338 0.23996717
12.531186 -31.813713 0.22549437
20.724777 -32.295685 0.25021419
20.775555 -32.303558 0.24091236
20.822796 -32.306934 0.24829112
20.874952 -32.316803 0.23780486
20.909489 -32.331787 0.2460243
12.455719 -31.750057 0.2555809
12.490161 -31.755308 0.23846024
12.535547 -31.745192 0.23744383
12.581488 -31.73801 0.22359113
20.631794 -32.239479 0.22311457
20.667913 -32.255035 0.23073028
20.723482 -32.253857 0.24630485
20.792402 -32.254585 0.25553817
20.829514 -32.273304 0.23963067
20.890728 -32.290352 0.26213703
12.453652 -31.697002 0.24633335
12.497481 -31.704626 0.24685317
12.537754 -31.706604 0.23536095
12.585741 -31.7113 0.22959635
20.639275 -32.227299 0.25099638
20.687998 -32.205074 0.2499714
20.713179 -32.209713 0.24048372
20.776396 -32.208855 0.25560084
20.832275 -32.226364 0.24522455
12.453886 -31.642601 0.24957477
12.495564 -31.65045 0.2413654
12.542353 -31.656868 0.22931564
12.572308 -31.677435 0.21913067
20.596743 -32.135517 0.23486006
20.629988 -32.145123 0.24027775
20.683928 -32.154915 0.23913638
20.732235 -32.163933 0.24554129
12.45752 -31.606913 0.24978355
12.499477 -31.606766 0.23220392
12.541842 -31.604239 0.23066874
20.545155 -32.096085 0.22796206
20.584116 -32.093063 0.2322183
20.622847 -32.11047 0.23712425
20.677782 -32.105621 0.24330863
12.420754 -31.558332 0.25966433
12.453211 -31.552303 0.2465421
12.489295 -31.554609 0.22988406
12.546302 -31.565369 0.2395741
20.487801 -32.054287 0.22519371
20.545656 -32.02264 0.21520159
20.58667 -32.044636 0.23548163
20.627422 -32.05801 0.25182053
12.510774 -31.499626 0.24542259
12.545169 -31.500141 0.2410126
20.50433 -31.998985 0.22135684
20.592684 -32.00465 0.24275419
20.635283 -31.998949 0.25851133
12.469682 -31.443707 0.24583712
12.498982 -31.452824 0.23400936
12.546181 -31.460033 0.24510953
20.511709 -31.925936 0.23121545
20.566675 -31.938267 0.24222662
20.604155 -31.957773 0.23714671
20.637028 -31.953888 0.22633401
12.438459 -31.377201 0.25452074
12.468491 -31.397181 0.24258035
12.504829 -31.394535 0.23625839
12.576603 -31.383232 0.24154869
20.548798 -31.916267 0.22355957
20.594687 -31.898256 0.24165553
20.641073 -31.894653 0.25620368
12.435477 -31.359259 0.25500906
12.475334 -31.348667 0.24663788
12.496851 -31.355444 0.23250589
20.510746 -31.827005 0.21795215
20.593077 -31.851818 0.23895213
12.439247 -31.319443 0.25339553
12.478724 -31.301144 0.241088
12.50778 -31.295851 0.24581897
20.517742 -31.793747 0.21511155
12.430149 -31.250172 0.24856032
12.481016 -31.251848 0.24137181
12.506634 -31.245058 0.24337274
20.676195 -31.738237 0.25481674
20.709312 -31.75453 0.24761057
12.444024 -31.208334 0.25727624
12.474997 -31.196243 0.24151573
12.509101 -31.204767 0.23003861
20.683973 -31.713556 0.23921648
20.71007 -31.69849 0.24982119
20.761683 -31.6877 0.24815054
20.812454 -31.702461 0.25828496
12.445163 -31.168352 0.22664863
12.475156 -31.148008 0.24145409
12.516584 -31.156578 0.24009691
20.755001 -31.663235 0.25515962
20.800024 -31.658995 0.24287824
20.866632 -31.662886 0.25319403
12.446669 -31.106384 0.2472041
12.482387 -31.097992 0.24043621
12.527193 -31.120157 0.24138232
20.81645 -31.595217 0.23971972
20.863518 -31.624237 0.23753458
20.906464 -31.600523 0.24575685
12.487528 -31.051405 0.24390796
12.521676 -31.043634 0.24230868
20.806271 -31.57638 0.2501713
