# .PCD v0.7 - Point Cloud Data file format
VERSION 0.7
FIELDS x y z
SIZE 4 4 4
TYPE F F F
COUNT 1 1 1
WIDTH 1464
HEIGHT 1
VIEWPOINT 0 0 0 1 0 0 0
POINTS 1464
DATA ascii
16.083511 -7.5256753 -0.64029467
16.1318 -7.5276055 -0.64180005
16.186964 -7.5344791 -0.64146495
16.239279 -7.5314837 -0.64504224
16.287594 -7.5391903 -0.64404356
16.341839 -7.5376892 -0.64163464
16.390827 -7.5448909 -0.64368457
16.439468 -7.5416918 -0.64101285
16.49622 -7.5507255 -0.6361984
16.534216 -7.5438781 -0.64731675
16.584068 -7.5542393 -0.64017898
16.627356 -7.5542264 -0.63957536
16.691454 -7.5717258 -0.64158165
16.734823 -7.5694156 -0.63450348
16.775047 -7.5717459 -0.64112318
16.829317 -7.5772834 -0.63606161
16.896933 -7.5657539 -0.63952833
16.931471 -7.5804257 -0.6367256
16.985378 -7.5878849 -0.63544577
17.020868 -7.5929065 -0.62659758
17.084148 -7.595057 -0.63829052
17.1367 -7.5963216 -0.63746387
17.19066 -7.6012001 -0.6469121
17.232656 -7.6091142 -0.63378853
17.275414 -7.5928612 -0.63923836
17.329632 -7.6013451 -0.63744205
17.377195 -7.6109219 -0.62633353
17.47625 -7.6001344 -0.63632953
20.944454 -7.8265553 -0.6361801
13.012201 -7.2688985 -0.62387669
13.050711 -7.2922478 -0.62721801
13.08007 -7.2974014 -0.62648261
13.143111 -7.2869482 -0.64241469
13.192014 -7.2856717 -0.64312315
13.247049 -7.2986321 -0.64448887
13.294288 -7.297492 -0.64125794
13.34517 -7.3110147 -0.64199543
13.389398 -7.3078318 -0.64134288
13.444212 -7.313086 -0.63611972
13.492469 -7.3182673 -0.63856465
13.541237 -7.3245955 -0.63943249
13.590326 -7.3139057 -0.63065726
13.646121 -7.3220243 -0.63483125
13.690863 -7.338388 -0.63451719
13.738839 -7.3378916 -0.63550287
13.793641 -7.3388329 -0.62952369
13.831669 -7.3478136 -0.62057668
14.649768 -7.3787026 -0.62191087
14.680734 -7.3763299 -0.62700593
14.748206 -7.3912477 -0.61779505
14.787941 -7.3983417 -0.63154906
14.842397 -7.4055834 -0.63397813
14.885884 -7.4185281 -0.63068944
14.941889 -7.4129524 -0.63327473
14.98656 -7.4050732 -0.6374346
15.038732 -7.4169531 -0.63704032
15.089248 -7.4268436 -0.63773733
15.137471 -7.4222059 -0.63921821
15.1895 -7.4300299 -0.64362645
15.241442 -7.4247651 -0.64279658
15.289038 -7.4282527 -0.63958573
15.337162 -7.4222393 -0.64046311
15.389939 -7.4232402 -0.64252621
15.441905 -7.4365811 -0.6418891
15.491916 -7.4341621 -0.64230436
15.539373 -7.4335933 -0.64162982
15.588253 -7.4497633 -0.64202845
15.635499 -7.453063 -0.64198107
15.685259 -7.4543939 -0.64035833
15.737001 -7.4567585 -0.63770747
15.787072 -7.4546819 -0.64078182
15.839253 -7.4511089 -0.64305353
15.886313 -7.4522414 -0.64520746
15.940806 -7.4512024 -0.64240974
15.984553 -7.4661608 -0.64385229
16.044853 -7.4704285 -0.64217263
16.088221 -7.4778132 -0.64357287
16.136278 -7.4834528 -0.64098263
16.186817 -7.4846511 -0.64212978
16.240974 -7.4875264 -0.6422773
16.291548 -7.4922819 -0.64357328
16.348829 -7.4922605 -0.64316726
16.394466 -7.4953089 -0.6421538
16.441957 -7.4956713 -0.63995093
16.483929 -7.5025673 -0.63859969
16.531399 -7.5112839 -0.64015192
16.581432 -7.5080738 -0.63464999
16.634876 -7.5102115 -0.63810426
16.681465 -7.512876 -0.63834286
16.737431 -7.5171332 -0.6400885
16.789957 -7.5302734 -0.63167083
16.844305 -7.5301886 -0.643637
16.882751 -7.532371 -0.63831133
16.945292 -7.5173073 -0.64280599
16.981762 -7.5377536 -0.64036816
17.052677 -7.5347819 -0.63542098
17.075232 -7.5503592 -0.64252466
17.141001 -7.5376945 -0.63579839
17.17255 -7.5355797 -0.64485121
17.234354 -7.5496316 -0.63717651
17.294453 -7.5530753 -0.62734956
17.321218 -7.5420914 -0.63739526
17.376326 -7.5649605 -0.62399095
17.434608 -7.5540257 -0.64124238
20.92256 -7.7951512 -0.64258814
20.975597 -7.7787085 -0.61989319
12.904413 -7.219615 -0.61934191
12.948964 -7.2261124 -0.62845588
12.995129 -7.2375383 -0.63250166
13.049445 -7.2427626 -0.62608033
13.100168 -7.2482843 -0.62307841
13.147129 -7.2425594 -0.63872302
13.198472 -7.2455411 -0.63861448
13.248394 -7.2516146 -0.63834435
13.297281 -7.2534704 -0.64288366
13.346218 -7.2638659 -0.63923305
13.399837 -7.2679806 -0.64007741
13.44752 -7.2660675 -0.64001346
13.496469 -7.2638745 -0.63402402
13.550527 -7.2700577 -0.62869477
13.602815 -7.2715101 -0.63134152
13.64635 -7.2695603 -0.62278032
13.699694 -7.2696428 -0.63254917
13.74343 -7.2750301 -0.62948918
13.797356 -7.2719059 -0.62973994
13.834757 -7.2841277 -0.61903358
14.657537 -7.3617806 -0.60842377
14.717458 -7.3321624 -0.60928339
14.749252 -7.3416457 -0.62706935
14.790416 -7.3466449 -0.63742155
14.84346 -7.3462291 -0.64313155
14.890808 -7.3533025 -0.63236701
14.945793 -7.3505569 -0.63595343
14.996769 -7.3581996 -0.64135361
15.0405 -7.3602471 -0.63803571
15.093098 -7.3626032 -0.63940972
15.141644 -7.3651619 -0.63550192
15.192141 -7.3709617 -0.63879371
15.24001 -7.3767557 -0.6364882
15.29224 -7.3808045 -0.63975418
15.343576 -7.38343 -0.64092338
15.39312 -7.3855996 -0.63909817
15.442533 -7.3871565 -0.64185178
15.489158 -7.3940787 -0.64216852
15.538634 -7.4000158 -0.64357787
15.588895 -7.4015598 -0.64215219
15.643402 -7.4057298 -0.64152551
15.691481 -7.4067802 -0.64170033
15.744039 -7.4059234 -0.64199412
15.792892 -7.411232 -0.64222598
15.841287 -7.4165068 -0.63782352
15.892233 -7.4113641 -0.64032048
15.941585 -7.419858 -0.63763106
15.987434 -7.4197764 -0.6394015
16.039564 -7.4246917 -0.63745826
16.092989 -7.4297476 -0.63240331
16.142078 -7.4351635 -0.63984066
16.189119 -7.4383998 -0.63817936
16.245518 -7.4369345 -0.63662583
16.302061 -7.4497318 -0.64095819
16.349386 -7.4464517 -0.64036041
16.402422 -7.4520535 -0.63964641
16.452448 -7.4556656 -0.64719421
16.488186 -7.4444513 -0.64843881
16.531454 -7.448009 -0.64729232
16.583141 -7.4625387 -0.64341474
16.634539 -7.4659071 -0.64515585
16.687176 -7.4707355 -0.64224285
16.747965 -7.4723105 -0.63877797
16.791758 -7.485198 -0.64304757
16.858593 -7.4954476 -0.64542305
16.893713 -7.4842105 -0.63880229
16.930622 -7.4796433 -0.64723855
16.983639 -7.4861841 -0.63976181
17.039913 -7.4992113 -0.64199054
17.088686 -7.4851489 -0.6464141
17.135614 -7.4869795 -0.64205629
17.200853 -7.4869485 -0.63606054
17.238663 -7.497086 -0.63831168
17.285162 -7.4999709 -0.63374215
17.35306 -7.4985781 -0.63640624
17.389677 -7.5071554 -0.62991518
17.451101 -7.5310931 -0.64897305
17.482729 -7.502255 -0.63810593
20.94635 -7.7345738 -0.6288079
20.983395 -7.7248921 -0.63110703
21.009693 -7.7475724 -0.61835408
12.819999 -7.1811075 -0.61383319
12.851636 -7.1778836 -0.62988311
12.896475 -7.185576 -0.63397753
12.951896 -7.1924295 -0.63577181
13.001672 -7.1873832 -0.64408046
13.052088 -7.1881061 -0.64331871
13.101821 -7.1910877 -0.64254469
13.152135 -7.1874404 -0.64158148
13.201807 -7.1946101 -0.63944817
13.249475 -7.1963477 -0.64060426
13.297001 -7.2009773 -0.63941443
13.351245 -7.2085009 -0.6360597
13.402397 -7.2143412 -0.6364277
13.449574 -7.2153959 -0.63855433
13.499191 -7.2237077 -0.63414693
13.546551 -7.228404 -0.63516688
13.600701 -7.2331967 -0.62996066
13.6482 -7.2287579 -0.63065207
13.698993 -7.2321777 -0.6359064
13.746571 -7.2309685 -0.63923025
13.799906 -7.2375107 -0.63496137
13.839121 -7.2385674 -0.6165334
14.712255 -7.3054528 -0.60485375
14.753268 -7.2989354 -0.61694795
14.799539 -7.307384 -0.62995762
14.847874 -7.3040051 -0.63344455
14.896304 -7.306376 -0.63143927
14.946987 -7.3116698 -0.63834041
14.993574 -7.3177733 -0.63984615
15.046018 -7.3140674 -0.64063501
15.096803 -7.3094468 -0.64220035
15.145539 -7.3049831 -0.64329857
15.196957 -7.3167601 -0.64651126
15.24593 -7.3174667 -0.64692831
15.301796 -7.3204861 -0.64693248
15.349075 -7.346848 -0.64479786
15.391144 -7.3548532 -0.64551473
15.506668 -7.3419423 -0.64551926
15.550273 -7.3485484 -0.64308786
15.593114 -7.3473201 -0.64373159
15.647566 -7.3488069 -0.64173412
15.701717 -7.3500361 -0.64014864
15.746344 -7.3577657 -0.63317531
15.796105 -7.3648796 -0.6359157
15.845737 -7.3669448 -0.634709
15.895567 -7.369916 -0.63515645
15.944685 -7.3705711 -0.63880318
15.995185 -7.376955 -0.63626134
16.044117 -7.3769512 -0.64049667
16.093832 -7.3763852 -0.6406579
16.145214 -7.3788133 -0.64224631
16.196629 -7.3801579 -0.64380813
16.247206 -7.3834796 -0.6422199
16.296162 -7.388989 -0.64057571
16.343668 -7.3934693 -0.64224666
16.391376 -7.3947225 -0.64042306
16.442163 -7.3969736 -0.63782334
16.500755 -7.3937984 -0.63884836
16.548304 -7.4038253 -0.63531739
16.583727 -7.4027734 -0.6360997
16.641029 -7.4039421 -0.64116138
16.691683 -7.4181418 -0.64542252
16.740673 -7.4163156 -0.64156538
16.793306 -7.4367862 -0.64093298
16.840479 -7.4322577 -0.6357671
16.887953 -7.4292984 -0.63400614
16.950663 -7.4292641 -0.64069664
16.991837 -7.432601 -0.64264071
17.02981 -7.4514093 -0.63733232
17.084875 -7.4335203 -0.64358509
17.122038 -7.4613934 -0.63970649
17.191858 -7.4365087 -0.6382705
17.240993 -7.4540334 -0.6429407
17.290609 -7.4495559 -0.63336909
17.333466 -7.4600997 -0.64332503
17.382845 -7.4644608 -0.63166773
17.441971 -7.470314 -0.64223957
17.493 -7.4838138 -0.64157593
20.948736 -7.6998124 -0.62157935
20.997206 -7.7022009 -0.63396102
12.966702 -7.1467609 -0.64408892
13.008854 -7.1569061 -0.64378011
13.048102 -7.1555324 -0.63448256
13.099968 -7.162673 -0.63980913
13.16468 -7.144402 -0.63476604
13.202058 -7.1547918 -0.64094102
13.253817 -7.1532145 -0.63547176
13.302912 -7.1532483 -0.63337564
13.35412 -7.1574183 -0.63218397
13.401885 -7.1624966 -0.63089257
13.453598 -7.1669979 -0.62396145
13.503107 -7.1728177 -0.62127113
13.552408 -7.1722283 -0.62618279
13.599586 -7.1685071 -0.61808521
13.657595 -7.1674232 -0.62707627
13.702903 -7.1739006 -0.62058437
13.754551 -7.1807885 -0.62449008
13.799825 -7.1928368 -0.6239171
13.837257 -7.1939392 -0.60815352
14.661104 -7.2356601 -0.62035757
14.685927 -7.2351823 -0.62354439
14.751446 -7.2331095 -0.61958128
14.800252 -7.2369261 -0.630624
14.850147 -7.2384911 -0.63422722
14.8971 -7.2367835 -0.63497704
14.95255 -7.2586374 -0.63224256
14.999521 -7.2563848 -0.6329332
15.048483 -7.2576804 -0.63459468
15.100157 -7.2667031 -0.63212973
15.150607 -7.2683101 -0.63580483
15.199259 -7.2781487 -0.63921964
15.24804 -7.2714119 -0.63582355
15.297101 -7.2767167 -0.63371903
15.347905 -7.2782054 -0.63530886
15.40072 -7.2820697 -0.63774937
15.446331 -7.2871065 -0.6394791
15.50183 -7.2909698 -0.63769406
15.552406 -7.3000517 -0.6400305
15.598866 -7.2913342 -0.64106399
15.649179 -7.3005562 -0.64151758
15.694996 -7.3034596 -0.64529866
15.748454 -7.3052163 -0.64239967
15.797508 -7.3090687 -0.64152777
15.846294 -7.3097372 -0.63891983
15.900135 -7.3160334 -0.64096004
15.95049 -7.3160362 -0.6398049
16.000626 -7.3181105 -0.64177281
16.044174 -7.314209 -0.63636911
16.088743 -7.3214455 -0.63457656
16.141842 -7.327353 -0.63395697
16.195967 -7.3346086 -0.63265282
16.24523 -7.3383031 -0.63545871
16.296736 -7.3433876 -0.63832426
16.345282 -7.3453341 -0.63676471
16.392334 -7.3437185 -0.63549179
16.44269 -7.3488522 -0.63562346
16.495476 -7.3621364 -0.63661349
16.55126 -7.3581424 -0.64012289
16.595966 -7.3532858 -0.63813299
16.648819 -7.3638906 -0.63764781
16.702101 -7.3493934 -0.64829618
16.74369 -7.3707218 -0.63947576
16.798054 -7.3732553 -0.6392625
16.835958 -7.3686137 -0.63568306
16.897911 -7.371398 -0.64564657
16.939304 -7.3805227 -0.63157773
16.993946 -7.3767533 -0.62795573
17.058758 -7.3905249 -0.64164805
17.097727 -7.3898182 -0.62513196
17.146259 -7.3873162 -0.64401197
17.189802 -7.3932023 -0.641689
17.250902 -7.3966532 -0.64271712
17.30265 -7.3940997 -0.64095199
17.351336 -7.4026442 -0.64441121
13.119666 -7.0696583 -0.63188875
13.21402 -7.1145768 -0.62841225
13.252464 -7.1077991 -0.63650727
13.302375 -7.1052327 -0.63585114
13.355787 -7.1095729 -0.63760507
13.407421 -7.1122389 -0.63502651
13.45547 -7.115684 -0.6343708
13.505272 -7.1164575 -0.63325554
13.553773 -7.1216702 -0.62279499
13.608591 -7.1259832 -0.62034637
13.653417 -7.1288934 -0.6317808
13.705945 -7.1312299 -0.63251764
13.757948 -7.1332192 -0.63354015
13.802133 -7.1358562 -0.63006711
13.833861 -7.1352634 -0.61062193
14.634209 -7.202878 -0.60197425
14.759245 -7.1961107 -0.61744779
14.803585 -7.2014956 -0.629722
14.848777 -7.1973863 -0.63084865
14.908442 -7.2005005 -0.6364696
14.952599 -7.2039132 -0.63896793
14.99966 -7.2112489 -0.63863975
15.054473 -7.2191906 -0.63744295
15.101416 -7.2209287 -0.64157701
15.150911 -7.2242131 -0.64075124
15.202027 -7.2237101 -0.6423164
15.249066 -7.2263732 -0.64226043
15.299354 -7.2330117 -0.64085978
15.352004 -7.2301579 -0.64079249
15.403897 -7.2337899 -0.64410174
15.454035 -7.2316794 -0.64422667
15.497481 -7.2347398 -0.64353043
15.54948 -7.2443633 -0.64053637
15.603216 -7.2493978 -0.63998049
15.653482 -7.2600765 -0.63896489
15.698324 -7.2572999 -0.63919085
15.752563 -7.2559829 -0.63776731
15.798252 -7.2525949 -0.63476974
15.851924 -7.2620788 -0.63649833
15.905555 -7.2685299 -0.63471782
15.95251 -7.2670126 -0.63759112
16.00198 -7.2735033 -0.63151217
16.04949 -7.2773848 -0.63335216
16.095802 -7.2796426 -0.63347304
16.148756 -7.2831087 -0.63681495
16.199753 -7.2739811 -0.63647568
16.250628 -7.2843022 -0.64169723
16.305735 -7.2793612 -0.64292943
16.347683 -7.2875233 -0.64393473
16.39839 -7.2946815 -0.64329004
16.452097 -7.2903275 -0.63458377
16.496244 -7.3104553 -0.64317286
16.55121 -7.3004751 -0.63531834
16.598684 -7.3072591 -0.64184868
16.650171 -7.3101745 -0.63835424
16.699879 -7.3182354 -0.63778895
16.75503 -7.3086805 -0.63746214
16.796906 -7.3371134 -0.62951541
16.831495 -7.3358159 -0.64571941
16.900892 -7.3300633 -0.63736022
16.960018 -7.344614 -0.63985813
16.999044 -7.3352427 -0.63570309
17.062124 -7.345912 -0.6361292
17.08263 -7.3315372 -0.64574105
17.145084 -7.343123 -0.63768482
17.198168 -7.3430071 -0.6342414
17.238432 -7.3497958 -0.63194197
17.296875 -7.3519702 -0.63402992
17.337032 -7.3342204 -0.64011556
13.107934 -7.0304413 -0.63660699
13.15731 -7.0624771 -0.63700795
13.210296 -7.0513229 -0.63569057
13.272862 -7.0506239 -0.63548505
13.302436 -7.058557 -0.63250083
13.358531 -7.0591917 -0.63561869
13.412635 -7.0617442 -0.63045686
13.460431 -7.0666203 -0.63062429
13.506388 -7.0650144 -0.62765729
13.553159 -7.0683203 -0.62849879
13.607093 -7.0712881 -0.63542503
13.656235 -7.076736 -0.61910462
13.702282 -7.0786605 -0.61879039
13.759238 -7.0879884 -0.62353545
13.807326 -7.0892315 -0.62093443
13.839968 -7.0728035 -0.61904824
14.665618 -7.1275973 -0.61815369
14.694539 -7.1289892 -0.62469554
14.764718 -7.1438708 -0.61220515
14.804326 -7.1448359 -0.62328374
14.856379 -7.1580734 -0.62730986
14.903447 -7.1568871 -0.62971801
14.956612 -7.1570477 -0.6320253
15.004557 -7.159965 -0.63151836
15.053888 -7.1726818 -0.63089681
15.108023 -7.1699748 -0.63537228
15.154596 -7.1685877 -0.63887817
15.20513 -7.165143 -0.63971013
15.256915 -7.1689901 -0.63839513
15.303779 -7.1769929 -0.64266509
15.35583 -7.1689758 -0.6405794
15.403191 -7.1731362 -0.63924241
15.451807 -7.1874237 -0.63936657
15.500619 -7.191782 -0.63854879
15.551937 -7.195128 -0.64063609
15.606133 -7.1987729 -0.63840532
15.654864 -7.2014174 -0.63517988
15.70557 -7.2056665 -0.63246572
15.754962 -7.2012277 -0.63447732
15.804402 -7.207871 -0.63787109
15.851004 -7.2123718 -0.6358189
15.89997 -7.2205987 -0.63840276
15.952971 -7.2184515 -0.63609219
16.003185 -7.2278929 -0.6390934
16.050449 -7.2252393 -0.63922453
16.099739 -7.2247005 -0.6358434
16.152979 -7.2242184 -0.63428706
16.204861 -7.2274156 -0.63740581
16.255091 -7.2349935 -0.63624549
16.306664 -7.2356424 -0.63445997
16.353771 -7.2382269 -0.63502139
16.397472 -7.2479916 -0.63289982
16.445648 -7.2397037 -0.63752049
16.499182 -7.242209 -0.63722736
16.550991 -7.2482448 -0.6367467
16.603134 -7.2504926 -0.63107908
16.650723 -7.26302 -0.6437186
16.699629 -7.2629728 -0.63356411
16.742344 -7.2811594 -0.63150054
16.807489 -7.293014 -0.63090253
16.853453 -7.279635 -0.64385539
16.913557 -7.2899733 -0.64747328
16.947981 -7.2846746 -0.64115936
16.999298 -7.2939663 -0.64329207
17.040678 -7.2772651 -0.64045823
17.0875 -7.2934332 -0.63073385
17.157364 -7.2897511 -0.64154369
17.203444 -7.2984576 -0.61630076
17.246548 -7.3014755 -0.63722116
17.312323 -7.313201 -0.63102305
17.353619 -7.3073282 -0.64532501
17.402369 -7.295764 -0.63660681
13.115125 -7.0082722 -0.64152145
13.173002 -7.0048246 -0.64840001
13.219317 -6.9877148 -0.64427745
13.269325 -6.9957461 -0.63249248
13.309624 -7.0027795 -0.62992638
13.361188 -7.0071864 -0.63434309
13.410738 -7.0125771 -0.6343146
13.464795 -7.0151925 -0.63171172
13.51183 -7.0138941 -0.63053358
13.559966 -7.0182619 -0.62989599
13.612275 -7.0185509 -0.62470526
13.660946 -7.0221953 -0.62764663
13.714181 -7.0252686 -0.62339801
13.761105 -7.0249949 -0.62693173
13.805586 -7.0262609 -0.62526524
13.839234 -7.0313125 -0.60214597
14.673981 -7.1104426 -0.61942989
14.730178 -7.0935831 -0.60412192
14.763562 -7.0946641 -0.62106746
14.810868 -7.098268 -0.63276106
14.85731 -7.0990887 -0.63298607
14.904744 -7.0996656 -0.62509429
14.96031 -7.1070833 -0.63597095
15.007781 -7.1106529 -0.63248914
15.058723 -7.1135864 -0.63492972
15.106743 -7.1181655 -0.63346732
15.159544 -7.1206927 -0.63429755
15.209416 -7.1247821 -0.63845551
15.257125 -7.1275072 -0.63697314
15.30491 -7.1332874 -0.637227
15.35898 -7.1354628 -0.63883007
15.40736 -7.1367655 -0.63866371
15.458677 -7.1421556 -0.63989365
15.511033 -7.1432533 -0.64058113
15.559175 -7.1451883 -0.63868052
15.611158 -7.1527452 -0.64070886
15.657421 -7.1536427 -0.63963836
15.707501 -7.1524525 -0.63783479
15.761015 -7.1508379 -0.63515967
15.807064 -7.1656017 -0.63601613
15.855999 -7.1652422 -0.63359928
15.904006 -7.1665516 -0.63451308
15.961247 -7.1728873 -0.63380694
16.009344 -7.1747122 -0.63271308
16.055754 -7.180511 -0.63345766
16.107588 -7.1817431 -0.63546163
16.157469 -7.1877236 -0.63755602
16.208641 -7.1901174 -0.63839525
16.256191 -7.1961799 -0.64117974
16.30719 -7.193831 -0.64239651
16.35582 -7.1902137 -0.64235264
16.401974 -7.2000036 -0.64190751
16.459202 -7.1984315 -0.64437258
16.511055 -7.2014441 -0.64072537
16.560701 -7.2057071 -0.6424582
16.611538 -7.2119875 -0.63405281
16.647686 -7.2085052 -0.63803858
16.699247 -7.2140608 -0.63585621
16.750332 -7.2157803 -0.63535631
16.802311 -7.2095523 -0.6369012
16.856398 -7.2260509 -0.63880068
16.889765 -7.2258549 -0.64123625
16.954304 -7.2316723 -0.633982
17.016045 -7.2447939 -0.63652408
17.072174 -7.2349424 -0.64735979
17.099365 -7.2371883 -0.64375937
17.158371 -7.2493691 -0.64097315
17.203093 -7.2393904 -0.63640088
17.246393 -7.2437792 -0.63878548
17.297251 -7.2656598 -0.63588607
17.340836 -7.2521372 -0.64040816
13.115583 -6.9479899 -0.63611054
13.162919 -6.9468832 -0.64330089
13.215155 -6.941236 -0.64315218
13.264364 -6.9456067 -0.64042199
13.317229 -6.9524179 -0.64024961
13.36303 -6.9566584 -0.64137256
13.416194 -6.9598579 -0.63847226
13.466408 -6.965488 -0.63264751
13.513617 -6.9676533 -0.62854809
13.562564 -6.9729342 -0.62302774
13.617341 -6.9855528 -0.62398446
13.664769 -6.9889092 -0.6317628
13.713089 -6.9844246 -0.62652773
13.765443 -6.9859672 -0.62865639
13.808324 -6.9905572 -0.62354022
13.841019 -6.9947581 -0.60116893
14.766468 -7.0506492 -0.61268377
14.809792 -7.0562844 -0.62152022
14.862333 -7.0554419 -0.62619209
14.908939 -7.0567756 -0.62654972
14.961027 -7.0603747 -0.63235402
15.009952 -7.0580549 -0.63208735
15.061295 -7.0561447 -0.63359034
15.110362 -7.0625491 -0.63832498
15.161036 -7.0686831 -0.64164853
15.2093 -7.0694675 -0.64251995
15.258962 -7.0686793 -0.6429041
15.313281 -7.078403 -0.6429655
15.363375 -7.0814061 -0.63901824
15.41464 -7.0860095 -0.63771284
15.45653 -7.0936418 -0.63924378
15.508164 -7.0906081 -0.63844949
15.558727 -7.0957174 -0.63989913
15.608617 -7.1050839 -0.63628513
15.653833 -7.1057653 -0.63549107
15.709172 -7.1060982 -0.6364221
15.757878 -7.1065755 -0.63561654
15.811562 -7.11373 -0.63478869
15.863111 -7.1152639 -0.63511151
15.909953 -7.1178083 -0.6368677
15.955595 -7.1199312 -0.63489395
16.006264 -7.1190171 -0.63317657
16.05542 -7.1242204 -0.63447553
16.106033 -7.1287575 -0.63603932
16.163309 -7.1280489 -0.63720381
16.216551 -7.1320996 -0.63814622
16.265333 -7.1337538 -0.6365214
16.311279 -7.1342697 -0.63686097
16.358986 -7.1389279 -0.6352241
16.406895 -7.1508994 -0.63703865
16.463707 -7.1529737 -0.63810474
16.511753 -7.155622 -0.63803869
16.560658 -7.1578364 -0.63483196
16.610245 -7.1645107 -0.64367503
16.650043 -7.1641665 -0.63458657
16.704756 -7.1653442 -0.64215302
16.755421 -7.1764994 -0.64149487
16.813545 -7.164587 -0.64209306
16.876152 -7.1680679 -0.6432212
16.904085 -7.1835828 -0.63893461
16.96711 -7.1801968 -0.63967669
17.026636 -7.1967349 -0.64684749
17.056087 -7.1880393 -0.64168972
17.114565 -7.1940656 -0.63746679
17.14987 -7.1881027 -0.64113051
17.207863 -7.186934 -0.63718373
17.251045 -7.1909227 -0.63475221
17.308344 -7.2083282 -0.63633418
17.359625 -7.2048168 -0.64593458
13.117728 -6.8900933 -0.6372031
13.169436 -6.9075403 -0.63694495
13.200087 -6.8928943 -0.6492539
13.26832 -6.9022417 -0.64110625
13.32123 -6.9007769 -0.64204854
13.370585 -6.9106059 -0.64436114
13.417079 -6.9121308 -0.64199972
13.470617 -6.9192019 -0.63862908
13.516035 -6.9213009 -0.63389367
13.565605 -6.9192328 -0.62752354
13.6199 -6.9190192 -0.62290597
13.667034 -6.9215317 -0.63524646
13.717646 -6.9214067 -0.63298243
13.763206 -6.924346 -0.6267457
13.811253 -6.9326835 -0.62256658
14.638062 -7.0011501 -0.60185665
14.669112 -6.9944592 -0.61604333
14.726157 -6.9873939 -0.61101162
14.771549 -6.983943 -0.62007219
14.815641 -6.9886975 -0.62801331
14.86359 -6.9937477 -0.63342124
14.913989 -6.9946904 -0.63129836
14.962197 -7.0022068 -0.62853009
15.017215 -7.0028319 -0.62975293
15.065959 -7.0069938 -0.63008136
15.114497 -7.0166445 -0.63192993
15.165035 -7.0177665 -0.63306189
15.212703 -7.0233197 -0.63298559
15.262035 -7.0291471 -0.63376647
15.309693 -7.0358634 -0.63674194
15.365073 -7.0371151 -0.63976097
15.412452 -7.0354681 -0.63740492
15.463857 -7.0401006 -0.6377095
15.512189 -7.0407662 -0.6407584
15.562906 -7.0386662 -0.64001286
15.611364 -7.0450821 -0.64061838
15.660836 -7.0494661 -0.6386618
15.712028 -7.0497093 -0.63685721
15.760394 -7.0551028 -0.63838005
15.807137 -7.0591578 -0.63666409
15.861977 -7.0635805 -0.63542378
15.911415 -7.0679607 -0.63328129
15.962284 -7.0714512 -0.63421267
16.017887 -7.0716915 -0.63630432
16.061752 -7.0785208 -0.6344052
16.10951 -7.0822701 -0.63273984
16.163477 -7.0806861 -0.6362111
16.215057 -7.0884814 -0.63490462
16.266161 -7.0912232 -0.63669336
16.316933 -7.0904994 -0.63577843
16.363686 -7.0958672 -0.63764375
16.408052 -7.099371 -0.63670313
16.463224 -7.096313 -0.63637662
16.524923 -7.0958481 -0.637124
16.561802 -7.1083341 -0.63836408
16.616304 -7.1034527 -0.64031577
16.658381 -7.1102242 -0.64114696
16.717175 -7.1086254 -0.64236504
16.752422 -7.1253996 -0.64498603
16.820004 -7.1235642 -0.64484155
16.856907 -7.1351204 -0.64596426
16.909887 -7.1375747 -0.6446144
16.966709 -7.1400919 -0.64346713
16.99704 -7.1306906 -0.64593875
17.053495 -7.1278715 -0.64107752
17.110422 -7.1356087 -0.64364862
17.163458 -7.1336617 -0.64017677
17.222174 -7.1399255 -0.64120805
17.27914 -7.1373057 -0.62467879
17.310301 -7.1538019 -0.64137429
17.35848 -7.1531234 -0.62965685
17.390472 -7.1700759 -0.63769126
13.116913 -6.8478365 -0.6464107
13.224703 -6.856966 -0.63048971
13.266784 -6.8487444 -0.63633412
13.323884 -6.8529143 -0.63789099
13.369602 -6.8558869 -0.63926017
13.419676 -6.8569922 -0.63596815
13.470931 -6.8660421 -0.63548654
13.521588 -6.8707981 -0.63705248
13.568719 -6.8782601 -0.63370979
13.620235 -6.8830743 -0.62928575
13.667918 -6.8830028 -0.63356161
13.719526 -6.8859963 -0.63502246
13.769104 -6.8853331 -0.63551605
13.812037 -6.8881021 -0.62906653
14.737235 -6.9470496 -0.61029041
14.769645 -6.9502559 -0.62039965
14.817426 -6.9487948 -0.62718534
14.86851 -6.9500303 -0.63170034
14.917627 -6.9526234 -0.6338349
14.97006 -6.9548907 -0.63730347
15.013506 -6.960083 -0.63454592
15.067511 -6.9684424 -0.63964587
15.119531 -6.970078 -0.64188266
15.164405 -6.9743977 -0.64089864
15.218603 -6.9731421 -0.64133692
15.265996 -6.9741526 -0.63986838
15.314964 -6.9769597 -0.64227241
15.365688 -6.9848113 -0.6414659
15.414416 -6.9863381 -0.63899869
15.470021 -6.9812865 -0.63576412
15.515199 -6.9921522 -0.63460714
15.564037 -6.9946027 -0.63489038
15.615821 -6.9963017 -0.63592255
15.665673 -6.9985404 -0.63744593
15.72131 -7.0078387 -0.63648427
15.768189 -7.0063615 -0.63562322
15.818594 -7.010077 -0.63382274
15.863427 -7.0170536 -0.63568652
15.913336 -7.013792 -0.63513809
15.960407 -7.0182481 -0.63381362
16.016661 -7.0207701 -0.63403362
16.06501 -7.021843 -0.63497847
16.118397 -7.0285535 -0.63853198
16.174555 -7.0322552 -0.63907391
16.222809 -7.0353007 -0.63993227
16.270878 -7.0409822 -0.64134467
16.320278 -7.0414762 -0.64151001
16.369999 -7.0414386 -0.6420595
16.416882 -7.0415502 -0.63917655
16.468779 -7.0404739 -0.63651359
16.516258 -7.0478468 -0.63733202
16.564899 -7.0463176 -0.63747263
16.615284 -7.0579796 -0.64149284
16.664392 -7.0619373 -0.63923907
16.708454 -7.0630226 -0.63890046
16.768337 -7.0728993 -0.63965476
16.814562 -7.0754318 -0.63529795
16.870283 -7.0756087 -0.63505703
16.921078 -7.0775552 -0.63799453
16.959175 -7.0871377 -0.63747555
17.012833 -7.0735183 -0.63458282
17.075375 -7.0836177 -0.63817304
17.118462 -7.0947013 -0.63423091
17.156443 -7.0936704 -0.63550901
17.215811 -7.0961709 -0.63518536
17.259315 -7.1042094 -0.63478857
17.30624 -7.1018887 -0.640508
17.3633 -7.1136389 -0.63575065
17.402212 -7.093235 -0.64072978
12.79058 -6.7613401 -0.62186688
12.820622 -6.7537956 -0.62375456
13.123053 -6.7934737 -0.64780635
13.246288 -6.8124881 -0.63766658
13.269626 -6.8027267 -0.6327427
13.324307 -6.8041773 -0.63680053
13.372903 -6.8104496 -0.63645947
13.42477 -6.8138599 -0.63227838
13.472447 -6.8163733 -0.6286853
13.524099 -6.8172441 -0.62691373
13.573811 -6.8168168 -0.62683421
13.626908 -6.8180757 -0.62618345
13.674854 -6.8193369 -0.62711382
13.722382 -6.8255148 -0.62526691
13.770878 -6.8301535 -0.62564844
13.808928 -6.838026 -0.61093467
14.638137 -6.8819046 -0.61661565
14.667763 -6.8824244 -0.62559128
14.728804 -6.8796072 -0.61496633
14.775053 -6.8905172 -0.62091058
14.818712 -6.8919888 -0.62690747
14.873491 -6.8894291 -0.63191926
14.920345 -6.904675 -0.63332605
14.97254 -6.9113269 -0.6285913
15.022197 -6.9068303 -0.62997609
15.070247 -6.9113369 -0.63085407
15.123364 -6.9167304 -0.63326848
15.169746 -6.9194674 -0.6338011
15.218272 -6.9188514 -0.63299698
15.272009 -6.924437 -0.63431269
15.32309 -6.928791 -0.63534433
15.371091 -6.9272227 -0.6361025
15.422022 -6.9370327 -0.63998985
15.471306 -6.935945 -0.64181632
15.518184 -6.9440269 -0.64206636
15.570073 -6.9476843 -0.64288604
15.615917 -6.9457803 -0.63907784
15.667689 -6.9500208 -0.63780367
15.718261 -6.9538507 -0.63757509
15.77111 -6.9604549 -0.63554251
15.819362 -6.9615197 -0.63861424
15.870104 -6.9620023 -0.63381779
15.921283 -6.9630589 -0.63208741
15.971219 -6.9686422 -0.63214582
16.019251 -6.9692559 -0.63016987
16.069448 -6.9749794 -0.63005489
16.118151 -6.9759336 -0.63508725
16.168261 -6.9825392 -0.63428408
16.226063 -6.9841833 -0.63932455
16.275658 -6.9903412 -0.63718802
16.322088 -6.9897504 -0.63809156
16.368294 -6.9939938 -0.6370362
16.420946 -6.9934106 -0.63909781
16.466986 -6.9949317 -0.63723278
16.522554 -7.0040431 -0.64296478
16.578243 -7.0059333 -0.64086765
16.619471 -7.002985 -0.64031428
16.67049 -7.0097666 -0.63900214
16.717083 -7.0149646 -0.63968015
16.777327 -7.0163946 -0.63727134
16.82905 -7.0287681 -0.64112622
16.858601 -7.0335712 -0.63838381
16.912273 -7.0390263 -0.63731897
16.974319 -7.0353255 -0.64533353
17.023338 -7.0314913 -0.64272708
17.067274 -7.0359335 -0.63834894
17.111361 -7.0309334 -0.63563836
17.172186 -7.0415688 -0.63545012
17.217625 -7.0465102 -0.62875253
17.245771 -7.0536523 -0.63889277
17.318474 -7.0677238 -0.63358146
17.370756 -7.0526547 -0.64915127
12.791898 -6.7241325 -0.6129964
12.824845 -6.7104049 -0.62273699
12.874467 -6.7236328 -0.63090652
12.930092 -6.7200379 -0.63612908
12.96446 -6.7155032 -0.63050407
13.102594 -6.7179661 -0.6076324
13.130874 -6.7212734 -0.61789197
13.180901 -6.7312007 -0.61994314
13.232647 -6.7472072 -0.62719673
13.27931 -6.7529345 -0.63398242
13.326579 -6.7550364 -0.63598204
13.374936 -6.7621207 -0.63301402
13.42571 -6.7628322 -0.6317156
13.475805 -6.7677784 -0.62609416
13.525901 -6.7707705 -0.62615794
13.575483 -6.7784467 -0.62599301
13.626352 -6.7822185 -0.62754786
13.67694 -6.7860479 -0.63156414
13.726485 -6.7850118 -0.63066989
13.775045 -6.7863655 -0.62987345
13.806981 -6.7888303 -0.61293912
14.738241 -6.8419328 -0.6136632
14.775779 -6.8448091 -0.62290806
14.826194 -6.8452463 -0.62909293
14.876306 -6.8478246 -0.63552862
14.921732 -6.8562965 -0.6345799
14.973703 -6.8628755 -0.63315892
15.021224 -6.8636189 -0.63676226
15.076575 -6.8647084 -0.63726711
15.123633 -6.8687372 -0.63634372
15.174624 -6.8724084 -0.63703173
15.222528 -6.8743744 -0.63593447
15.275519 -6.8741035 -0.63655895
15.324978 -6.8788953 -0.63874483
15.373892 -6.8824234 -0.64081854
15.42372 -6.8886809 -0.63848662
15.478135 -6.8869429 -0.63795781
15.526139 -6.891376 -0.63616228
15.573884 -6.891427 -0.63578641
15.623381 -6.8971291 -0.63479519
15.670033 -6.9015365 -0.63557917
15.720925 -6.9016075 -0.6367293
15.771733 -6.907567 -0.63500136
15.820574 -6.9072118 -0.63576293
15.871403 -6.9121413 -0.63238257
15.924626 -6.9196215 -0.63602281
15.973635 -6.9235334 -0.63832843
16.024925 -6.919065 -0.63856626
16.069004 -6.9279575 -0.63959104
16.122225 -6.927937 -0.64006615
16.176846 -6.9329367 -0.63938713
16.227711 -6.9369307 -0.63963568
16.278269 -6.9382572 -0.6385836
16.3267 -6.9418669 -0.63765877
16.381046 -6.942029 -0.6388182
16.42655 -6.9522328 -0.64137793
16.470739 -6.9519911 -0.63724983
16.519852 -6.953124 -0.63849109
16.564522 -6.959197 -0.63571912
16.6245 -6.9591537 -0.63768679
16.67837 -6.9636288 -0.63624763
16.714668 -6.9649868 -0.64012659
16.766018 -6.9666386 -0.63593787
16.818474 -6.9695096 -0.63569212
16.869156 -6.9777441 -0.64256346
16.926594 -6.9774265 -0.64111036
16.97311 -7.0024748 -0.63628453
17.024406 -6.9775038 -0.64237869
17.074253 -6.9838176 -0.63904619
17.111362 -6.9869857 -0.63880557
17.172178 -6.9927621 -0.6306982
17.218315 -6.9935679 -0.62821823
17.250959 -7.0046964 -0.62964404
12.850996 -6.6860147 -0.61385512
12.878819 -6.6805487 -0.62501758
12.931117 -6.677072 -0.63184291
12.986078 -6.6890674 -0.63337439
13.029691 -6.6877251 -0.63533401
13.082337 -6.6909733 -0.63376635
13.131482 -6.6931505 -0.6342749
13.181348 -6.6975403 -0.63629526
13.231088 -6.6976519 -0.63099289
13.28097 -6.7010036 -0.63198143
13.330333 -6.709795 -0.62838107
13.38063 -6.7118473 -0.63102007
13.430146 -6.714004 -0.63105613
13.479828 -6.7173824 -0.63200694
13.525842 -6.7163401 -0.62443292
13.57984 -6.7126293 -0.62715602
13.631196 -6.7147999 -0.62255603
13.677978 -6.7206936 -0.62691802
13.72668 -6.7343569 -0.62258279
13.782926 -6.7415047 -0.61027491
13.809182 -6.7513494 -0.61221313
14.641549 -6.7852178 -0.61677659
14.665805 -6.7815046 -0.62475252
14.732704 -6.7841215 -0.61567056
14.777473 -6.7901416 -0.62660229
14.827911 -6.7964544 -0.63307536
14.87628 -6.8017879 -0.629412
14.926294 -6.8085518 -0.62686217
14.97616 -6.812366 -0.631239
15.028615 -6.8112025 -0.63138324
15.077685 -6.807734 -0.62996495
15.124525 -6.8148084 -0.6329608
15.174745 -6.819912 -0.63670766
15.226496 -6.8249025 -0.63959128
15.276908 -6.8272691 -0.63609046
15.327271 -6.8242221 -0.63685375
15.3757 -6.8356767 -0.63604152
15.427403 -6.8365736 -0.63885897
15.474975 -6.8352575 -0.63956338
15.528339 -6.837183 -0.64157176
15.577768 -6.8390551 -0.63870263
15.627529 -6.8485079 -0.63433945
15.677302 -6.8535566 -0.63631201
15.727307 -6.8526063 -0.6355269
15.772857 -6.8545389 -0.63544154
15.8251 -6.8599215 -0.63529569
15.875525 -6.8633637 -0.63328052
15.923485 -6.86201 -0.63306379
15.972731 -6.864099 -0.63096082
16.025541 -6.8682675 -0.62855148
16.072668 -6.8705392 -0.62963939
16.11595 -6.8749866 -0.63370186
16.170721 -6.8805289 -0.63340151
16.22513 -6.883153 -0.63410294
16.275248 -6.8831248 -0.63557976
16.322329 -6.8919363 -0.63734645
16.37425 -6.8942566 -0.63733929
16.426456 -6.9029355 -0.63775766
16.478344 -6.90627 -0.63840723
16.516165 -6.9073248 -0.63851863
16.578297 -6.9145236 -0.64264816
16.625668 -6.9161248 -0.63761759
16.670856 -6.9052052 -0.6420328
16.725193 -6.9140344 -0.64026612
16.773554 -6.9290299 -0.63881916
16.822989 -6.9068031 -0.64049941
16.872181 -6.9316964 -0.63974047
16.934584 -6.9216075 -0.6427539
16.97143 -6.9326749 -0.64139038
17.031715 -6.9328976 -0.63952482
17.082113 -6.9349151 -0.63916916
17.122725 -6.9399247 -0.64446527
17.171064 -6.9514093 -0.63241816
17.2178 -6.9442468 -0.63084495
17.25493 -6.9244847 -0.63130921
17.308348 -6.9287834 -0.63328809
12.942842 -6.6520586 -0.6181345
12.982944 -6.639956 -0.62861001
13.030709 -6.6313014 -0.63052315
13.081815 -6.6408319 -0.63701487
13.135392 -6.6462326 -0.63690752
13.186123 -6.6496468 -0.63443601
13.233373 -6.6504807 -0.63013744
13.285939 -6.6532512 -0.63145304
13.334627 -6.6544704 -0.63290679
13.381919 -6.6622343 -0.63111615
13.432551 -6.6630793 -0.6288414
13.479639 -6.6693969 -0.62762582
13.530881 -6.6707087 -0.62241161
13.584401 -6.6735663 -0.62386948
13.634659 -6.6739902 -0.62490684
13.681637 -6.6794891 -0.62679487
13.731718 -6.6835713 -0.62807357
13.773298 -6.6811543 -0.61797988
14.699383 -6.747344 -0.60667044
14.736625 -6.7480483 -0.61870056
14.781282 -6.7452002 -0.6280269
14.828717 -6.7496042 -0.62960935
14.881256 -6.7529087 -0.63456202
14.929405 -6.7563086 -0.63302416
14.983144 -6.7652264 -0.63252735
15.02866 -6.7663603 -0.63519132
15.080546 -6.7667022 -0.63842255
15.130141 -6.7694364 -0.63785625
15.181552 -6.7748227 -0.63658261
15.229744 -6.7773333 -0.634606
15.278827 -6.7773743 -0.63844413
15.329318 -6.781971 -0.63761157
15.378375 -6.7858443 -0.63782477
15.429839 -6.7856312 -0.63630724
15.476118 -6.7862711 -0.63340628
15.532527 -6.7873449 -0.63665515
15.580069 -6.7921581 -0.6406067
15.629334 -6.7980309 -0.63746679
15.677045 -6.7999029 -0.63722968
15.726621 -6.7998071 -0.6372925
15.778329 -6.8051381 -0.6356988
15.830535 -6.8073497 -0.63344538
15.877849 -6.8139038 -0.63700002
15.929851 -6.8168163 -0.63729894
15.980791 -6.8167562 -0.6362896
16.030853 -6.8224092 -0.63606352
16.077082 -6.8270416 -0.63460141
16.12361 -6.8269262 -0.63405311
16.173923 -6.8310819 -0.63731384
16.226538 -6.837265 -0.63798338
16.279816 -6.8335195 -0.6384629
16.325554 -6.8394518 -0.63884526
16.374514 -6.8418927 -0.63770133
16.431131 -6.8456922 -0.63675618
16.480749 -6.8468604 -0.63638645
16.532234 -6.8500309 -0.63636333
16.576149 -6.8541608 -0.6368463
16.629427 -6.8537321 -0.63507277
16.672911 -6.8626595 -0.63734502
16.720282 -6.8652983 -0.63871366
16.773165 -6.8645916 -0.63986725
16.825987 -6.8732705 -0.63836229
16.885202 -6.865099 -0.64346725
16.923635 -6.8737273 -0.6373201
16.976288 -6.8898077 -0.64238644
17.026028 -6.873023 -0.63317603
17.073954 -6.8800406 -0.63473511
17.124725 -6.8783631 -0.62935328
17.169954 -6.8793106 -0.63214928
17.219036 -6.8935094 -0.62985146
17.260267 -6.9011831 -0.63336176
17.319824 -6.8914032 -0.63649887
12.996446 -6.5858922 -0.62855053
13.030692 -6.5878696 -0.63098902
13.090282 -6.5961957 -0.63899595
13.137342 -6.5962439 -0.63402635
13.18634 -6.5981421 -0.63189912
13.237467 -6.6001663 -0.63218671
13.288737 -6.6016593 -0.63144761
13.337687 -6.6071067 -0.63016367
13.386654 -6.6101618 -0.62587905
13.436639 -6.6113939 -0.6225515
13.481282 -6.6103334 -0.62514806
13.530452 -6.6105037 -0.62322873
13.583206 -6.6036835 -0.61770946
13.6368 -6.6137595 -0.62217396
13.683009 -6.6258903 -0.61824137
13.733369 -6.6482348 -0.61820793
13.775955 -6.6416101 -0.61381537
14.602775 -6.6689544 -0.60512644
14.63301 -6.667037 -0.61273617
14.709034 -6.6786962 -0.60211331
14.739156 -6.6976433 -0.61221707
14.783355 -6.6872492 -0.62534106
14.835494 -6.7029648 -0.62901634
14.881678 -6.7057657 -0.6270225
14.93522 -6.7094588 -0.62175971
14.984005 -6.7094731 -0.62807244
15.031112 -6.713131 -0.63099384
15.085049 -6.7172098 -0.63294119
15.134575 -6.7118297 -0.63505453
15.185153 -6.7164454 -0.6386621
15.233429 -6.7211552 -0.64085561
15.282329 -6.7239971 -0.63834345
15.329087 -6.7291684 -0.63731796
15.382309 -6.7270665 -0.63666451
15.431441 -6.7328162 -0.64058578
15.479085 -6.7344403 -0.64005661
15.531569 -6.7427316 -0.63650227
15.585707 -6.7473378 -0.63583761
15.636129 -6.7446232 -0.63747722
15.683715 -6.7485251 -0.6362192
15.732927 -6.7505498 -0.63514405
15.779483 -6.7568831 -0.63439524
15.833652 -6.7596507 -0.63361347
15.884981 -6.7644758 -0.6325683
15.930904 -6.765007 -0.62981546
15.979225 -6.7680597 -0.63297242
16.033588 -6.7694016 -0.62842709
16.081007 -6.7757778 -0.63230217
16.132158 -6.7772036 -0.63297087
16.179773 -6.7812881 -0.63689125
16.233089 -6.7859621 -0.6375072
16.280918 -6.7920628 -0.64180815
16.332708 -6.7894154 -0.64095783
16.381737 -6.7916727 -0.64023757
16.435135 -6.79918 -0.63866186
16.477865 -6.7924304 -0.63717878
16.527874 -6.806633 -0.638385
16.578705 -6.8069148 -0.63874722
16.624237 -6.8121023 -0.64070034
16.683954 -6.8208461 -0.63700497
16.730038 -6.8079691 -0.63600504
16.79244 -6.8283496 -0.62822431
16.829014 -6.8166246 -0.63854331
16.879698 -6.8295121 -0.63449073
16.938351 -6.8349285 -0.62956506
16.970261 -6.8284264 -0.63309932
17.027889 -6.8243794 -0.6297369
17.078638 -6.8316846 -0.62836045
17.134676 -6.8356752 -0.63592267
17.18195 -6.8384056 -0.62247318
17.224274 -6.8529739 -0.63960135
17.284376 -6.8559275 -0.64217824
17.33386 -6.8553905 -0.63803679
17.370319 -6.8376522 -0.64719808
12.962653 -6.5110812 -0.63439852
12.994842 -6.53231 -0.62456626
13.036293 -6.5425086 -0.63001698
13.089536 -6.5456247 -0.63737756
13.14085 -6.5494561 -0.63629097
13.189801 -6.549119 -0.63566738
13.240177 -6.5485678 -0.63210917
13.290691 -6.5531416 -0.6342513
13.34036 -6.5541177 -0.63406342
13.388947 -6.5608439 -0.6308046
13.438086 -6.5618601 -0.62834191
13.489817 -6.5648174 -0.62832779
13.538397 -6.5740767 -0.61917651
13.590574 -6.5733924 -0.62169719
13.639742 -6.5733943 -0.62498873
13.689478 -6.581049 -0.62826407
13.738597 -6.5816412 -0.63003528
13.779607 -6.5804868 -0.62068009
14.60592 -6.6530414 -0.60613489
14.633174 -6.6541886 -0.61735559
14.695865 -6.6383257 -0.60781765
14.737093 -6.6403975 -0.61953509
14.787694 -6.6446609 -0.62877482
14.834228 -6.6490741 -0.63055134
14.884901 -6.6490526 -0.63470489
14.936254 -6.6580057 -0.63219398
14.986594 -6.6576681 -0.63160014
15.034662 -6.6632924 -0.62831396
15.085799 -6.6682272 -0.63075536
15.135535 -6.6653247 -0.63437349
15.190316 -6.6680455 -0.63362074
15.233795 -6.6773691 -0.63224936
15.286487 -6.679318 -0.63504571
15.336794 -6.6819453 -0.63523996
15.382648 -6.6828308 -0.63463622
15.435 -6.6853795 -0.63808089
15.484892 -6.686307 -0.64083505
15.534498 -6.689743 -0.6395995
15.583781 -6.6935592 -0.63736266
15.634738 -6.6936293 -0.63688141
15.683526 -6.7006698 -0.63718188
15.73504 -6.7090974 -0.63591629
15.785514 -6.7105412 -0.63564944
15.836859 -6.7129474 -0.63647217
15.885248 -6.7152185 -0.63465446
15.933893 -6.718513 -0.63387638
15.985363 -6.7192559 -0.63259369
16.03586 -6.7217741 -0.63528788
16.087982 -6.7223721 -0.63678098
16.135084 -6.728054 -0.6355949
16.185095 -6.7321472 -0.63356185
16.237648 -6.7294455 -0.63462967
16.288626 -6.7414737 -0.63155472
16.338192 -6.7370343 -0.62961113
16.387398 -6.7416301 -0.62974519
16.437201 -6.741322 -0.6296736
16.483482 -6.7548513 -0.63907653
16.532282 -6.7546511 -0.63646793
16.584902 -6.7518926 -0.63664716
16.631943 -6.7561855 -0.63669443
16.677336 -6.7668743 -0.6327849
16.736525 -6.7589531 -0.62907869
16.778339 -6.7727785 -0.63906866
16.828175 -6.7724218 -0.63716799
16.875948 -6.772387 -0.63827264
16.917042 -6.7742901 -0.64276773
16.984243 -6.7769966 -0.64466512
17.030394 -6.7702026 -0.63487887
17.07091 -6.7794662 -0.64423901
17.128485 -6.788269 -0.63715398
17.18659 -6.7892499 -0.63181001
17.227177 -6.7861586 -0.63073117
17.268948 -6.8142562 -0.62816381
17.334204 -6.7993693 -0.6405316
17.37257 -6.7883878 -0.63427299
17.415316 -6.7930737 -0.63997918
12.962476 -6.4605541 -0.62963516
12.992805 -6.4885001 -0.62597632
13.042226 -6.4923024 -0.6320045
13.091691 -6.4942808 -0.63148177
13.142109 -6.4960523 -0.63347757
13.19161 -6.497313 -0.63094741
13.24476 -6.5023131 -0.62883449
13.292685 -6.5022516 -0.62708998
13.343383 -6.5061193 -0.6279189
13.393484 -6.5071397 -0.62753874
13.443449 -6.505096 -0.62293875
13.489233 -6.5128546 -0.62559199
13.538692 -6.5188255 -0.62489462
13.597179 -6.5293217 -0.61629701
13.643198 -6.5386453 -0.61404222
13.693621 -6.5407848 -0.61366743
13.742901 -6.5423422 -0.61323357
13.783743 -6.5449247 -0.60777974
14.615842 -6.5656786 -0.6121577
14.644428 -6.5686975 -0.61589003
14.706569 -6.6050096 -0.60314572
14.742733 -6.5953698 -0.60874462
14.790506 -6.5978017 -0.62099802
14.839372 -6.6026735 -0.62409353
14.887723 -6.6077652 -0.62492168
14.938869 -6.6054916 -0.62690818
14.989292 -6.6033564 -0.62812495
15.037381 -6.6123514 -0.63151813
15.087322 -6.6154418 -0.63441443
15.137905 -6.6149712 -0.63517922
15.189836 -6.6193266 -0.63648778
15.240721 -6.6225858 -0.63926345
15.286819 -6.6262784 -0.6373595
15.336781 -6.6273971 -0.63542932
15.386811 -6.6285038 -0.63651466
15.437822 -6.6355391 -0.63682824
15.494782 -6.636847 -0.63763916
15.539183 -6.6440125 -0.63956827
15.588754 -6.6444931 -0.63739556
15.63805 -6.6480527 -0.63982302
15.691103 -6.6512585 -0.63851517
15.741401 -6.6522284 -0.63654983
15.788958 -6.6546125 -0.63661015
15.84086 -6.655458 -0.63369888
15.887161 -6.6604042 -0.63228732
15.937931 -6.6668353 -0.62625408
15.988551 -6.6665754 -0.63036364
16.037693 -6.6688652 -0.63364214
16.090199 -6.6738858 -0.63266647
16.134748 -6.678978 -0.63389808
16.190617 -6.687376 -0.63596249
16.237616 -6.688138 -0.63544118
16.288382 -6.6905394 -0.63498175
16.341949 -6.6984897 -0.6385057
16.386572 -6.6978841 -0.63355315
16.434021 -6.7032361 -0.63759398
16.495237 -6.7040148 -0.63546586
16.537392 -6.7012591 -0.63276261
16.591576 -6.7108545 -0.63748902
16.645342 -6.7090106 -0.63316721
16.681263 -6.7190561 -0.63732141
16.74119 -6.7147784 -0.63095993
16.789171 -6.7173705 -0.63052911
16.840994 -6.7346053 -0.6342867
16.89179 -6.7162862 -0.633147
16.934175 -6.7250323 -0.64015454
16.981365 -6.7459645 -0.63935268
17.038584 -6.7127872 -0.62622267
17.088259 -6.7310476 -0.6461578
17.135338 -6.7458358 -0.6420331
17.188662 -6.7417884 -0.6378237
17.240374 -6.7486234 -0.63544917
17.265503 -6.7694664 -0.61523557
17.332922 -6.7547379 -0.63487214
17.369314 -6.7543249 -0.64394575
17.440153 -6.7575755 -0.63724512
12.965182 -6.4347987 -0.61554104
12.996284 -6.4389515 -0.62454909
13.045843 -6.4379926 -0.63226563
13.09534 -6.4418774 -0.63097596
13.144943 -6.4436541 -0.62988609
13.19327 -6.445632 -0.63043547
13.245464 -6.4506192 -0.62737423
13.298493 -6.454812 -0.6253432
13.344312 -6.4563298 -0.62793618
13.395947 -6.4573665 -0.62482768
13.446518 -6.4603481 -0.6284135
13.495781 -6.4636564 -0.62837398
13.549404 -6.4653573 -0.61907333
13.595841 -6.4677548 -0.62491244
13.645742 -6.4746675 -0.62560868
13.694159 -6.474865 -0.62903553
13.743622 -6.4739976 -0.6260922
13.776415 -6.4807005 -0.61238199
14.644078 -6.5546589 -0.61750275
14.702582 -6.5339155 -0.61431187
14.745932 -6.5399876 -0.61897403
14.794413 -6.5436559 -0.62761146
14.844242 -6.5503006 -0.62711561
14.892474 -6.5495582 -0.62766409
14.942222 -6.5539408 -0.6291098
14.992712 -6.5591884 -0.62587398
15.045252 -6.5638108 -0.62999827
15.092015 -6.563127 -0.62970024
15.14215 -6.5676689 -0.6319623
15.192408 -6.5688801 -0.63293558
15.240783 -6.5749412 -0.63100576
15.294142 -6.5826945 -0.63399601
15.341665 -6.5799499 -0.63515961
15.388853 -6.579824 -0.63258916
15.443504 -6.5870609 -0.63690698
15.493837 -6.5910354 -0.63914609
15.540449 -6.5885205 -0.63779372
15.593122 -6.594069 -0.63384295
15.642096 -6.5989056 -0.63257474
15.691078 -6.6048479 -0.63167268
15.739342 -6.6031632 -0.62968814
15.788922 -6.6099038 -0.63124466
15.84203 -6.6116738 -0.63425159
15.893106 -6.6201921 -0.6321575
15.939489 -6.6178398 -0.6282416
15.988698 -6.6191144 -0.62981254
16.040007 -6.6225452 -0.63180333
16.091181 -6.6274672 -0.63354069
16.14151 -6.6324177 -0.63654166
16.190344 -6.6321249 -0.6388126
16.240381 -6.6344495 -0.6385197
16.290794 -6.6355267 -0.63544351
16.34516 -6.640924 -0.63650864
16.389954 -6.6418195 -0.63399845
16.440887 -6.6433001 -0.63749605
16.491125 -6.6464434 -0.63449067
16.538486 -6.6516056 -0.63346112
16.590538 -6.6544452 -0.63478827
16.630142 -6.6577706 -0.63017213
16.683592 -6.655858 -0.63325512
16.745111 -6.6664987 -0.63365769
16.792532 -6.6683011 -0.63658422
16.840099 -6.6740518 -0.63855302
16.892982 -6.6690321 -0.63014907
16.934509 -6.6705723 -0.63922137
16.992121 -6.6700373 -0.63061929
17.043861 -6.6840744 -0.62547261
17.09104 -6.6913333 -0.62753981
17.150095 -6.6910567 -0.61973023
17.188644 -6.6935563 -0.62615949
17.23612 -6.7000656 -0.63125908
17.291862 -6.7064953 -0.6287995
17.342388 -6.710176 -0.64329517
17.370468 -6.7136598 -0.63825399
17.430742 -6.7314038 -0.64882553
12.960483 -6.3808432 -0.61645263
12.999495 -6.3840671 -0.62600678
13.048919 -6.389276 -0.62346905
13.100084 -6.394331 -0.62489182
13.148663 -6.3964972 -0.62114823
13.199326 -6.3970408 -0.62544614
13.249436 -6.4044561 -0.63161623
13.298677 -6.4115062 -0.63195634
13.349354 -6.4108071 -0.62794405
13.397989 -6.4115267 -0.62549835
13.448057 -6.414866 -0.62146151
13.494549 -6.4165912 -0.61429143
13.547375 -6.4309478 -0.61279434
13.598272 -6.4305449 -0.62005556
13.64729 -6.435905 -0.62502021
13.699036 -6.4376192 -0.62588823
13.746109 -6.4323378 -0.62129486
13.778013 -6.4355659 -0.60797626
14.618236 -6.4629955 -0.60989672
14.626139 -6.4632416 -0.61542946
14.714699 -6.4894862 -0.60857219
14.747191 -6.5000038 -0.61347026
14.798003 -6.4998493 -0.62290549
14.844177 -6.5047312 -0.62464893
14.898027 -6.5025125 -0.6254968
14.94534 -6.5045757 -0.62637204
14.994971 -6.5095234 -0.62986648
15.045256 -6.51052 -0.63379943
15.095483 -6.5137701 -0.63586408
15.146509 -6.5170698 -0.63563246
15.196096 -6.5222831 -0.63521165
15.245083 -6.5237393 -0.63389373
15.296775 -6.5251207 -0.6362043
15.345836 -6.5280132 -0.63667703
15.394028 -6.5317726 -0.63325441
15.443835 -6.5381603 -0.6313917
15.492255 -6.5440812 -0.63148749
15.545015 -6.5429606 -0.63446385
15.593982 -6.5424466 -0.63592076
15.643896 -6.5465693 -0.63473469
15.69452 -6.5496716 -0.63239062
15.745745 -6.5517759 -0.63189179
15.796768 -6.5547357 -0.6290381
15.848373 -6.560617 -0.62823075
15.895658 -6.565341 -0.63040847
15.941036 -6.5644207 -0.62619501
15.991317 -6.5643988 -0.62598342
16.043663 -6.5669909 -0.6283015
16.090557 -6.5775747 -0.63114083
16.141682 -6.5835485 -0.63361955
16.193567 -6.5802155 -0.63516694
16.24313 -6.5870123 -0.63492775
16.286318 -6.5916386 -0.6353218
16.33721 -6.596436 -0.63780016
16.389244 -6.5947628 -0.63771981
16.439463 -6.6050677 -0.63535017
16.497572 -6.6028652 -0.63883317
16.543623 -6.6055689 -0.63765502
16.592384 -6.6068525 -0.64025009
16.647093 -6.6151276 -0.63618279
16.693443 -6.6054244 -0.64097613
16.738804 -6.6226878 -0.6317755
16.798698 -6.6154027 -0.62722999
16.847157 -6.6234922 -0.637793
16.900246 -6.6245952 -0.62938881
16.949305 -6.6281586 -0.62745368
16.992535 -6.632194 -0.63327408
17.039322 -6.6262722 -0.64075154
17.086636 -6.6390758 -0.64083952
17.141222 -6.6407962 -0.64027452
17.187397 -6.6523356 -0.63348192
17.237049 -6.6456876 -0.63192421
17.307161 -6.6455307 -0.64896542
17.347994 -6.6543546 -0.63845462
12.964405 -6.3294425 -0.62187195
13.00055 -6.3341656 -0.62683052
13.052899 -6.3402047 -0.62879467
13.101997 -6.3426976 -0.62888545
13.15316 -6.344594 -0.62703824
13.201543 -6.3474832 -0.62450784
13.251748 -6.3571534 -0.62080234
13.3004 -6.3559799 -0.62620413
13.349378 -6.3538356 -0.62391496
13.400877 -6.3606172 -0.62565547
13.452394 -6.3655505 -0.62919867
13.493155 -6.3744922 -0.62806392
13.551537 -6.3643813 -0.62222928
13.604226 -6.3661928 -0.62082934
13.651474 -6.3659782 -0.61940277
13.703071 -6.3682699 -0.62305105
13.74102 -6.3726249 -0.6091699
14.606067 -6.44309 -0.61790252
14.633539 -6.4436221 -0.62643069
14.704535 -6.4392786 -0.61641431
14.751999 -6.4391294 -0.62802851
14.797093 -6.4434314 -0.62707818
14.849406 -6.4488468 -0.62850243
14.89772 -6.4470515 -0.63384926
14.949548 -6.453227 -0.63051611
14.998618 -6.4580164 -0.62686652
15.046606 -6.4583549 -0.62734526
15.097959 -6.4607368 -0.62585086
15.14712 -6.473803 -0.62865859
15.199142 -6.479804 -0.62543106
15.249451 -6.4791136 -0.62758446
15.298344 -6.4772158 -0.62927556
15.348899 -6.4841776 -0.63056374
