# .PCD v0.7 - Point Cloud Data file format
VERSION 0.7
FIELDS x y z
SIZE 4 4 4
TYPE F F F
COUNT 1 1 1
WIDTH 1562
HEIGHT 1
VIEWPOINT 0 0 0 1 0 0 0
POINTS 1562
DATA ascii
12.684435 -14.966697 3.4152911
14.914876 -15.100632 3.4141545
14.967865 -15.110828 3.424334
15.019024 -15.112407 3.4262068
15.069784 -15.113813 3.4302971
15.114568 -15.111825 3.4430256
15.161919 -15.10846 3.449764
15.306334 -15.121178 3.4513164
16.067341 -15.181401 3.4114652
12.644778 -14.93701 3.4346111
12.672526 -14.929832 3.4263027
12.722954 -14.937483 3.4124846
12.766853 -14.935156 3.4122341
12.963284 -14.924396 3.4090474
13.253895 -14.941693 3.427531
14.817917 -15.063609 3.4223101
14.931672 -15.060222 3.4545877
14.972479 -15.063664 3.426466
15.020428 -15.066373 3.4314425
15.071169 -15.07437 3.419579
15.121347 -15.075029 3.4339526
15.171366 -15.071551 3.4429085
15.218682 -15.086489 3.4526184
15.908179 -15.10766 3.417434
16.023029 -15.14502 3.4117506
16.07303 -15.137792 3.4205976
16.101416 -15.148827 3.4080601
12.594646 -14.884418 3.4104171
12.626264 -14.882535 3.4275322
12.6708 -14.873957 3.4261358
12.707733 -14.868924 3.4342997
12.993387 -14.91556 3.4074006
13.033751 -14.907108 3.4077735
13.082003 -14.905801 3.4087801
13.122218 -14.91613 3.4127038
13.177308 -14.903267 3.4099092
13.232964 -14.908373 3.4247031
13.276737 -14.904002 3.4251666
15.033386 -15.046741 3.4107418
15.073736 -15.045983 3.4240022
15.187078 -15.058487 3.4535427
15.211578 -15.058434 3.4549153
15.889844 -15.090392 3.4446499
15.93299 -15.079093 3.4342823
15.978722 -15.085202 3.4364507
16.013414 -15.092946 3.406734
16.09128 -15.098964 3.4088321
13.247653 -14.868396 3.4286985
13.274457 -14.883315 3.4280472
13.337942 -14.876817 3.4174504
13.381279 -14.873125 3.4333482
13.42916 -14.882178 3.4351778
13.479801 -14.881622 3.4353046
13.52463 -14.873267 3.4427707
13.586605 -14.887226 3.4406281
13.606453 -14.863941 3.4197948
13.982565 -14.867442 3.420532
15.141055 -14.866933 3.4301167
15.248501 -14.891198 3.4071083
15.282003 -14.892229 3.4093835
15.331137 -14.893964 3.4132533
15.379163 -14.896021 3.4181209
15.42813 -14.898322 3.4234004
15.477657 -14.893871 3.4209869
15.533235 -14.882971 3.4301567
15.584738 -14.899821 3.4148562
15.630278 -14.893507 3.4396377
10.516259 -17.451191 3.4626637
10.569247 -17.453875 3.4702015
10.615304 -17.442713 3.484184
10.47632 -17.423792 3.4648192
10.52986 -17.41201 3.4733555
10.569999 -17.397053 3.4719167
10.612876 -17.403677 3.4800634
10.973994 -17.419729 3.4795425
11.01657 -17.423975 3.4809163
10.47212 -17.363922 3.4634774
10.524871 -17.354565 3.4665306
10.577074 -17.352245 3.4765031
10.615075 -17.358107 3.4890256
10.668513 -17.366673 3.4609318
10.989539 -17.377687 3.4727304
11.015162 -17.378769 3.4883769
11.675853 -17.423477 3.4802346
11.701221 -17.438715 3.4610844
10.579236 -17.307981 3.4672782
10.624233 -17.31625 3.4806032
10.652223 -17.307329 3.4820411
10.981905 -17.335081 3.4783316
11.020577 -17.33493 3.4876792
11.05497 -17.324871 3.5041742
11.696843 -17.383455 3.4814825
13.170062 -17.452997 3.5013154
13.217929 -17.452682 3.4953566
10.534539 -17.27042 3.4686375
10.577567 -17.268509 3.4913852
10.985441 -17.295385 3.4666364
11.028794 -17.285091 3.4816124
11.057347 -17.301609 3.4721649
13.138167 -17.43173 3.4855092
13.177117 -17.423841 3.4860699
13.228064 -17.419445 3.4804103
13.265573 -17.418631 3.4789345
13.319815 -17.421633 3.4825957
13.370042 -17.427242 3.4775007
13.419776 -17.436306 3.4715683
13.47031 -17.438675 3.4693041
13.524322 -17.434496 3.4617782
13.576493 -17.439978 3.4756634
13.62111 -17.442982 3.4739034
13.66975 -17.447113 3.4750476
13.718547 -17.450981 3.4748104
13.759713 -17.458101 3.4823084
13.88485 -17.457174 3.4854877
13.927465 -17.441654 3.4896204
11.036465 -17.244217 3.4780931
13.244182 -17.388636 3.5055017
13.257445 -17.364491 3.485383
13.526572 -17.409611 3.4583526
13.7925 -17.42255 3.4781258
13.811838 -17.423227 3.5006933
13.86806 -17.404879 3.5012941
13.920586 -17.408684 3.4890594
13.970436 -17.408241 3.4737759
14.024006 -17.413778 3.4666893
14.056548 -17.435047 3.5016878
14.644919 -17.444996 3.5039878
14.676565 -17.444805 3.4888716
14.729692 -17.454632 3.4785581
14.818946 -17.453699 3.4694519
14.727189 -17.393076 3.4949098
15.227659 -17.439281 3.4973199
15.277207 -17.44442 3.4783018
15.327758 -17.450485 3.4886484
15.368971 -17.448977 3.4788365
15.423965 -17.44577 3.4845328
15.47455 -17.440279 3.4838436
15.523309 -17.455296 3.4757626
14.968716 -17.38818 3.4575417
15.345057 -17.391331 3.4877925
15.375328 -17.402653 3.484086
15.42409 -17.406359 3.4708188
15.472797 -17.408962 3.4593265
15.541261 -17.43368 3.4572775
15.582916 -17.434622 3.4822922
15.617303 -17.418068 3.473604
15.684562 -17.42454 3.4830406
15.71312 -17.422777 3.4952557
15.582108 -17.36904 3.4692333
15.639999 -17.374306 3.4810581
15.675831 -17.378716 3.4729784
15.009762 -17.233646 3.4682436
15.053535 -17.232496 3.4582181
15.096774 -17.223816 3.4654875
15.141127 -17.229111 3.4815974
15.19016 -17.236919 3.47367
15.243245 -17.237602 3.4768126
15.287421 -17.238176 3.4982951
14.898517 -17.159145 3.5037031
15.114228 -17.188356 3.462317
15.143312 -17.197609 3.4662395
15.200315 -17.195232 3.4742692
15.244321 -17.191299 3.4757943
15.291609 -17.18997 3.4879405
15.333043 -17.195381 3.4987049
15.391618 -17.188465 3.4897776
15.439644 -17.182098 3.4847147
15.858928 -17.206848 3.5054262
15.867153 -17.207672 3.4658656
14.816374 -17.099764 3.4921482
14.834215 -17.097441 3.4940505
15.105585 -17.143267 3.4584959
15.138757 -17.139313 3.4609549
15.190163 -17.144239 3.4628596
15.243246 -17.140966 3.471812
15.296199 -17.147943 3.4823177
15.335509 -17.153801 3.4953282
15.381942 -17.162733 3.5005074
15.464626 -17.176533 3.4855154
15.501217 -17.168722 3.4855139
15.553154 -17.155226 3.4916186
15.593779 -17.143978 3.4979475
15.789736 -17.187801 3.4929783
15.849835 -17.171246 3.4786589
15.888577 -17.193396 3.4860327
14.846058 -17.062372 3.4930685
14.891949 -17.06036 3.4924953
14.933037 -17.05669 3.4955628
15.298344 -17.099695 3.470655
15.345531 -17.116388 3.4915645
15.391781 -17.106628 3.5012069
15.634482 -17.13365 3.5013528
15.697432 -17.121378 3.4957612
15.748201 -17.134712 3.4904509
15.792436 -17.138916 3.4832449
15.854959 -17.134485 3.4911003
15.890139 -17.14506 3.469672
14.859283 -17.022482 3.5059397
14.896141 -17.02165 3.5026376
15.708874 -17.055597 3.5018556
15.746478 -17.070921 3.4991603
15.794532 -17.086895 3.4917438
15.839514 -17.085972 3.4715195
14.857821 -16.980993 3.4946675
14.896055 -16.979939 3.4947839
14.934929 -16.98892 3.5059674
12.191233 -15.827098 3.4584374
12.218554 -15.805552 3.4721622
12.247312 -15.806265 3.4757621
12.683523 -15.52171 3.4641762
12.676007 -15.488556 3.4578764
10.565078 -15.179231 3.4609444
10.607719 -15.187552 3.4729347
10.581132 -15.144299 3.4599993
10.614422 -15.148957 3.4717908
10.658858 -15.146724 3.4875476
11.06562 -15.165066 3.4758699
10.369902 -15.078138 3.4610181
10.408057 -15.075701 3.4696939
10.448381 -15.073148 3.4767475
10.509886 -15.099449 3.4657285
10.565491 -15.106277 3.4703064
10.612927 -15.099154 3.4756107
10.650344 -15.098685 3.4901731
10.687055 -15.085332 3.4860075
11.022951 -15.116042 3.4747179
11.054447 -15.12701 3.4850638
11.108891 -15.129689 3.4828269
10.438174 -15.01978 3.4576099
10.51825 -15.054905 3.4698172
10.566776 -15.048945 3.4692457
10.613548 -15.05178 3.4754703
10.653614 -15.051009 3.4909661
11.026472 -15.080038 3.479768
11.060175 -15.080971 3.487834
11.099733 -15.070443 3.4921236
10.474963 -15.018086 3.467989
10.517816 -14.989967 3.4662974
10.57586 -15.001731 3.4715447
10.611674 -15.002711 3.4769053
10.659935 -15.007071 3.4835746
11.029016 -15.028196 3.4787164
11.053974 -15.037918 3.4942336
10.579445 -14.959266 3.4630392
10.624724 -14.962671 3.4732549
10.66755 -14.963123 3.4839578
10.695353 -14.970673 3.4933879
11.030998 -14.972311 3.4692593
11.066129 -14.979054 3.4886417
11.656844 -15.004214 3.4828234
11.025564 -14.93244 3.4854558
11.678598 -14.977759 3.4722602
11.709716 -14.961498 3.4797177
11.683594 -14.925939 3.4836113
11.722811 -14.926356 3.4798398
11.760397 -14.925665 3.4844158
15.059522 -15.105206 3.4623716
15.114035 -15.112446 3.4690206
15.161342 -15.115681 3.4799488
15.212852 -15.118804 3.4809964
15.263007 -15.121267 3.4760301
15.30343 -15.119296 3.5043674
15.359977 -15.125184 3.4703517
15.417073 -15.12965 3.500622
15.078903 -15.06281 3.4608459
15.128512 -15.066927 3.4700327
15.175631 -15.084634 3.4711435
15.221209 -15.093612 3.4739032
15.27011 -15.09234 3.4816816
15.317644 -15.095217 3.4943125
15.346669 -15.083944 3.4969575
15.916967 -15.12431 3.4902437
15.966524 -15.11833 3.4952292
16.052032 -15.12422 3.4579189
13.249198 -14.928458 3.4682853
13.269226 -14.911939 3.4851041
13.598422 -14.912061 3.487952
15.235757 -15.058416 3.4588106
15.273488 -15.058421 3.4665561
15.326837 -15.058538 3.4863546
15.882551 -15.087193 3.4863465
15.924261 -15.078088 3.4819872
15.97663 -15.094442 3.4797132
13.280778 -14.874599 3.4799242
13.326799 -14.881713 3.4785552
13.443399 -14.873521 3.4591866
13.537621 -14.870931 3.4983196
13.578827 -14.881104 3.4625876
13.62434 -14.876784 3.4695821
13.682023 -14.876052 3.4852884
13.73993 -14.873465 3.4919202
15.688046 -14.870714 3.4758832
10.985226 -17.417437 3.5116723
11.025372 -17.428913 3.524493
11.044845 -17.436834 3.5281682
10.624784 -17.352518 3.5146148
11.034553 -17.376987 3.5305352
11.058524 -17.395275 3.5182402
11.675467 -17.431555 3.5352941
11.703796 -17.42098 3.5349286
11.023458 -17.33674 3.5278544
11.074334 -17.322918 3.526825
11.71515 -17.380964 3.5264888
11.0384 -17.285864 3.5252461
11.054767 -17.290585 3.5156493
13.190492 -17.425966 3.5334401
13.235251 -17.425545 3.5211041
13.271005 -17.411507 3.5217528
13.577953 -17.452923 3.5503998
13.774306 -17.444759 3.5280862
13.821575 -17.459068 3.5471323
13.866766 -17.457182 3.5449393
13.918756 -17.457598 3.5345387
14.036098 -17.458996 3.5175855
11.040483 -17.239393 3.5254505
13.269147 -17.374788 3.530668
13.619898 -17.407745 3.5549121
13.78597 -17.405312 3.5226343
13.824764 -17.411314 3.517102
13.865782 -17.421511 3.5233397
13.93749 -17.412489 3.5242059
13.976637 -17.412502 3.5353158
14.029185 -17.402843 3.5496447
14.070992 -17.410339 3.535676
14.10081 -17.425917 3.5487094
14.442567 -17.437696 3.5526226
14.472541 -17.453552 3.5431852
14.573559 -17.459242 3.5338216
14.611767 -17.445349 3.5176704
13.92242 -17.384476 3.55281
14.542312 -17.397295 3.553411
14.57532 -17.396698 3.5426679
14.61973 -17.395432 3.5302968
14.679101 -17.394405 3.5237617
14.724604 -17.39603 3.5365322
14.77888 -17.399433 3.5408752
14.812908 -17.412088 3.5559249
15.17601 -17.437172 3.5319693
15.226591 -17.4513 3.5463531
15.271591 -17.451229 3.5222011
15.393736 -17.439339 3.5407917
15.429612 -17.442297 3.5240867
15.481675 -17.446928 3.5314732
15.524368 -17.446333 3.5221779
15.572483 -17.444901 3.5153153
15.621332 -17.442976 3.5168931
14.683847 -17.377943 3.5481677
14.705917 -17.378101 3.5376832
15.289329 -17.413986 3.5434089
15.331256 -17.414873 3.5195041
15.434097 -17.402838 3.5247829
15.477889 -17.401331 3.5140827
15.539306 -17.397951 3.512789
15.579246 -17.395445 3.5151799
15.628573 -17.409687 3.5351491
15.67584 -17.432617 3.5311911
15.719878 -17.432356 3.5324256
15.671511 -17.389601 3.5205169
15.71209 -17.38689 3.5241132
15.154279 -17.221781 3.5069299
15.245743 -17.224955 3.5152831
15.298391 -17.222786 3.5380826
15.329944 -17.237589 3.5162694
15.38593 -17.250633 3.5307198
15.438982 -17.249693 3.5438061
15.49251 -17.248665 3.5521698
15.19113 -17.190723 3.5287843
15.248552 -17.197445 3.540736
15.294492 -17.19446 3.5197625
15.34847 -17.200487 3.5254891
15.389066 -17.198421 3.5281031
15.442988 -17.198185 3.5303595
15.491572 -17.198452 3.5376575
15.543058 -17.198971 3.5413649
15.59406 -17.195978 3.5458632
15.635294 -17.195137 3.5507007
15.745706 -17.209324 3.5464032
15.797516 -17.206264 3.5488529
15.843792 -17.204948 3.547122
14.859171 -17.116316 3.5271361
14.896729 -17.120163 3.5276597
14.93049 -17.122114 3.530061
15.355131 -17.136179 3.5137703
15.398771 -17.155222 3.5231142
15.442441 -17.15568 3.5288327
15.494783 -17.160835 3.5331767
15.543037 -17.165899 3.5385478
15.592871 -17.162075 3.5414743
15.644251 -17.161913 3.5422561
15.695366 -17.160774 3.5381355
15.748799 -17.169825 3.5343523
15.798765 -17.169195 3.5514302
15.841906 -17.171036 3.5385263
15.877155 -17.186483 3.5500817
15.935616 -17.19825 3.5525017
15.992361 -17.190344 3.540391
14.848341 -17.073792 3.5332658
14.899298 -17.082327 3.5272744
14.936532 -17.085518 3.532455
15.299051 -17.109804 3.5167298
15.357942 -17.100515 3.5343866
15.398641 -17.106825 3.5315287
15.447736 -17.106174 3.5269814
15.496371 -17.10524 3.5345204
15.54581 -17.111689 3.5411441
15.598928 -17.110729 3.5448763
15.642629 -17.110184 3.5446777
15.692647 -17.128305 3.5475647
15.743097 -17.139669 3.5333929
15.80636 -17.13484 3.5468836
15.841516 -17.129246 3.5371549
15.891335 -17.147539 3.5269706
15.944863 -17.148628 3.5287564
15.988346 -17.14361 3.5555396
14.842828 -17.026781 3.5079064
14.900908 -17.020025 3.5097084
14.940517 -17.02202 3.5131645
15.407522 -17.052412 3.5432248
15.454292 -17.064156 3.5525706
15.492903 -17.055836 3.5548754
15.545858 -17.078114 3.5184736
15.603082 -17.072275 3.5326278
15.650794 -17.072187 3.5428867
15.698484 -17.068186 3.5304744
15.74071 -17.072432 3.5166097
15.443257 -17.018196 3.5490515
15.494925 -17.004629 3.5545955
15.54507 -16.993046 3.5551786
15.603489 -17.019512 3.5508192
15.654058 -17.02898 3.541923
15.686773 -17.02655 3.521184
15.61738 -16.982782 3.5374715
11.063916 -15.172036 3.5140059
10.678054 -15.106851 3.5081859
11.067037 -15.125457 3.5213485
11.103676 -15.121165 3.5436993
10.657632 -15.067012 3.5192628
11.029379 -15.08806 3.5563481
11.066584 -15.089717 3.515625
11.097927 -15.087057 3.5347228
10.626059 -14.995066 3.5085459
10.64764 -15.010525 3.5162797
11.012832 -15.006131 3.5201809
11.069619 -15.028884 3.5263629
11.093065 -15.032325 3.539916
11.031586 -15.002634 3.5528009
11.065993 -14.977087 3.5181744
11.102286 -14.979394 3.5235999
11.640815 -15.005507 3.5251353
11.672458 -15.027893 3.5393729
11.694141 -15.01361 3.5424106
12.073534 -15.037958 3.537421
12.106584 -15.049307 3.5490074
14.913551 -15.205696 3.518575
14.948281 -15.209101 3.5331781
11.035081 -14.948882 3.5370414
11.056199 -14.942739 3.5261576
11.685417 -14.988166 3.5184052
11.71942 -14.966935 3.5288324
11.752572 -14.960312 3.5467436
12.072097 -14.989808 3.5427701
12.110524 -14.975916 3.5445783
14.91325 -15.162374 3.5295384
14.952508 -15.159166 3.5372698
14.991718 -15.161021 3.5523133
15.474051 -15.187705 3.5309963
15.522713 -15.196634 3.5416062
15.563532 -15.195031 3.5496385
15.603726 -15.193748 3.553525
15.663441 -15.192707 3.5477648
11.72267 -14.926338 3.5264287
11.753242 -14.934499 3.5510871
12.092128 -14.963311 3.553771
12.120614 -14.959644 3.5525055
14.927007 -15.129845 3.5452058
14.967778 -15.136401 3.5470269
15.329676 -15.11832 3.5175109
15.422797 -15.133602 3.5183358
15.466131 -15.138567 3.5363622
15.509026 -15.150093 3.5334728
15.562228 -15.153522 3.5352793
15.615262 -15.154681 3.5434723
15.66662 -15.154226 3.5458815
15.709359 -15.159933 3.5497739
15.823425 -15.152733 3.5500362
15.868024 -15.152259 3.5307734
11.757822 -14.8961 3.5333848
12.142054 -14.892137 3.527477
15.229156 -15.075294 3.50986
15.27692 -15.077986 3.5176504
15.327875 -15.086136 3.5170207
15.373796 -15.093669 3.5258548
15.42372 -15.092951 3.5333412
15.468687 -15.097667 3.5364356
15.515098 -15.099655 3.5390565
15.56391 -15.10602 3.5437667
15.619436 -15.114448 3.5403767
15.668528 -15.115162 3.5419338
15.702762 -15.096788 3.5356636
15.885309 -15.117094 3.541708
15.922153 -15.124883 3.5253341
13.235764 -14.920889 3.5466149
13.273849 -14.912436 3.5302141
13.529894 -14.928891 3.5431821
13.577578 -14.930348 3.5407982
15.331078 -15.061817 3.5287611
15.377325 -15.060503 3.5243192
15.421753 -15.05992 3.5308979
15.476961 -15.058279 3.5342758
15.528184 -15.060221 3.5360055
15.577204 -15.068095 3.5406742
15.619512 -15.070041 3.5428641
15.667668 -15.068789 3.5477681
15.707058 -15.068929 3.5527155
15.877248 -15.081481 3.5438063
15.912068 -15.074739 3.529774
13.295305 -14.871053 3.5288563
13.312746 -14.87304 3.541045
13.544357 -14.897991 3.5378778
13.588103 -14.880807 3.5235462
13.627575 -14.872867 3.5338986
13.676092 -14.873098 3.5383952
13.736004 -14.8828 3.5364482
13.776658 -14.873411 3.5132115
15.69858 -15.039589 3.5363996
15.725489 -15.037721 3.5390148
13.688558 -14.864523 3.5429196
13.720975 -14.863595 3.5536456
13.941443 -14.868683 3.5512013
13.990073 -14.859341 3.5433688
15.726537 -14.86672 3.514348
11.673363 -17.425434 3.5741489
11.714946 -17.429539 3.5799823
11.760544 -17.429562 3.5868042
12.110618 -17.428936 3.5830927
11.037952 -17.323381 3.5707996
11.723444 -17.387367 3.5678377
12.104487 -17.421936 3.5846753
11.038098 -17.29356 3.5661578
13.236108 -17.426159 3.6042593
13.273105 -17.411177 3.5867388
13.312593 -17.410349 3.6002767
13.353353 -17.412012 3.5940423
13.866995 -17.45882 3.5746174
13.910578 -17.437193 3.5663586
13.187231 -17.36006 3.5957942
13.225737 -17.353769 3.588903
13.274433 -17.376682 3.5802698
13.313756 -17.371944 3.5964599
13.535801 -17.395802 3.5775793
13.579139 -17.39019 3.569869
13.62158 -17.381628 3.5723732
13.879975 -17.399836 3.5812564
13.926973 -17.399593 3.5700309
13.979741 -17.395508 3.5730326
14.042997 -17.433176 3.5787437
14.077475 -17.4207 3.5732343
14.127327 -17.424906 3.5756741
14.176475 -17.440445 3.5892916
14.221462 -17.438854 3.5949419
14.266408 -17.435213 3.58518
14.34505 -17.430471 3.5779119
14.379131 -17.428825 3.5768883
14.422243 -17.426064 3.5702026
14.475619 -17.440258 3.5701251
14.523038 -17.423086 3.5765676
13.203246 -17.301498 3.5738113
13.227864 -17.311136 3.5949364
13.493289 -17.348265 3.5973282
13.518823 -17.345219 3.5881548
13.581597 -17.348053 3.5788145
13.6079 -17.34734 3.6013787
13.924012 -17.367617 3.5972633
13.982353 -17.366186 3.5917182
14.016434 -17.36483 3.5951171
14.385749 -17.399492 3.6044023
14.419204 -17.398323 3.5975559
14.475574 -17.397787 3.5780318
14.533663 -17.405996 3.5773575
14.577908 -17.398247 3.5867529
14.62536 -17.405701 3.5746992
14.675258 -17.405294 3.5759485
14.72477 -17.404467 3.5710618
14.754007 -17.38936 3.5695469
15.149142 -17.451574 3.5923235
15.181208 -17.451536 3.5741405
15.213461 -17.451464 3.5596786
13.193085 -17.260227 3.6002593
13.231882 -17.26894 3.6013477
13.501051 -17.261784 3.6004221
14.003233 -17.330595 3.6059499
14.628859 -17.376791 3.5760858
14.662468 -17.376949 3.5607984
15.1924 -17.411064 3.5990567
15.225574 -17.411659 3.581403
15.25666 -17.413319 3.5616224
15.587286 -17.421377 3.5676975
15.628084 -17.42063 3.5683868
15.682609 -17.405897 3.5579607
13.201177 -17.232086 3.6001039
13.513202 -17.225693 3.6069438
15.675077 -17.390802 3.593945
15.708191 -17.389772 3.5767
15.267448 -17.222622 3.5635023
15.545909 -17.247635 3.5586169
15.598867 -17.246643 3.5645874
15.649638 -17.245712 3.5694387
15.690582 -17.244991 3.5736024
15.266324 -17.185917 3.5626836
15.396931 -17.202436 3.5930774
15.435424 -17.202057 3.5655899
15.488317 -17.203798 3.5691988
15.538337 -17.203259 3.5685635
15.59113 -17.201473 3.5737321
15.642083 -17.2096 3.5769897
15.696632 -17.207712 3.5723944
15.740985 -17.221586 3.5824916
15.789295 -17.216709 3.5790105
15.835929 -17.230125 3.5729249
15.364232 -17.145834 3.5645349
15.407166 -17.137777 3.5683005
15.449976 -17.158602 3.5719268
15.4964 -17.162834 3.5701749
15.548198 -17.164261 3.5699151
15.59918 -17.162029 3.5738058
15.647999 -17.16431 3.5709503
15.696676 -17.16798 3.5661583
15.749361 -17.159702 3.5622551
15.794172 -17.16548 3.5740232
15.82454 -17.159836 3.5679505
15.904956 -17.187048 3.6053426
15.939873 -17.184441 3.590054
15.971694 -17.182287 3.5823765
15.447329 -17.093161 3.5777338
15.497906 -17.106298 3.5858514
15.552445 -17.115988 3.5802853
15.592313 -17.112793 3.5777004
15.639061 -17.118742 3.5708592
15.750901 -17.122293 3.5606158
15.793218 -17.127483 3.5632653
15.863028 -17.148457 3.5986123
15.901269 -17.148512 3.5845146
15.94475 -17.146458 3.5659237
15.361484 -17.033031 3.5866995
15.39126 -17.033121 3.5930817
15.453562 -17.039976 3.5937874
15.500282 -17.05691 3.5857112
15.550568 -17.063736 3.5782509
15.598078 -17.072069 3.5713398
15.64261 -17.070719 3.5621753
15.410644 -17.00445 3.5838399
15.450918 -17.013168 3.5857735
15.497457 -17.018623 3.5863633
15.549821 -17.019323 3.5866561
15.603457 -17.019737 3.5809271
15.642328 -17.021433 3.5679913
15.466341 -16.960625 3.569335
15.514182 -16.966383 3.5746939
15.549795 -16.95941 3.5750468
11.065592 -15.118694 3.5614476
11.102057 -15.121027 3.5904086
11.022786 -15.058723 3.5664032
11.041791 -15.098846 3.5718172
11.103255 -15.089765 3.5798254
11.062443 -15.045147 3.5586443
11.092945 -15.033979 3.5626011
11.670068 -15.052106 3.5769207
11.69922 -15.060508 3.5804
12.122584 -15.084963 3.5843439
12.157863 -15.075318 3.600755
11.078403 -14.978798 3.5644712
11.687037 -15.03711 3.56284
11.709031 -15.02803 3.5818172
12.071849 -15.044992 3.5587251
12.11989 -15.042822 3.5812161
12.15843 -15.047353 3.581105
14.91206 -15.201339 3.5583265
14.958038 -15.201214 3.5562141
11.685271 -14.984869 3.5798094
11.736099 -14.966172 3.5661135
11.764232 -14.961235 3.5817418
12.084441 -14.984157 3.5726364
12.119921 -14.991878 3.5802836
12.159633 -14.977557 3.5949669
14.914099 -15.154177 3.561708
14.966886 -15.150246 3.5610249
15.485188 -15.189295 3.5966208
15.522892 -15.188464 3.5905221
15.571573 -15.188056 3.5840454
15.623447 -15.191842 3.5801036
15.66242 -15.195688 3.5768852
15.700502 -15.199624 3.5700855
11.689837 -14.905917 3.5778706
11.731034 -14.923804 3.5731025
11.754497 -14.931227 3.5810933
12.093986 -14.94923 3.5906138
12.133187 -14.954477 3.587214
12.175299 -14.957216 3.588824
15.478072 -15.165372 3.5832238
15.52068 -15.158756 3.5802963
15.568572 -15.157603 3.5751619
15.618059 -15.160897 3.5766702
15.667408 -15.163847 3.5724459
15.715047 -15.158529 3.5752904
15.766231 -15.153029 3.5710278
15.800865 -15.152987 3.5595047
13.539042 -14.969157 3.5867419
13.566821 -14.999324 3.58729
15.395594 -15.089565 3.5592833
15.424238 -15.10081 3.5650294
15.470837 -15.10978 3.5731957
15.520624 -15.112585 3.5742953
15.572498 -15.114201 3.5755863
15.621243 -15.115471 3.572773
15.668262 -15.112748 3.5701773
15.717833 -15.115768 3.5743725
15.772109 -15.109602 3.579951
15.823953 -15.112394 3.5811069
15.864355 -15.113699 3.5691063
15.898875 -15.112797 3.5573711
13.236365 -14.923622 3.57023
13.281298 -14.91411 3.577018
13.31892 -14.914004 3.5921948
13.497239 -14.924924 3.5921977
13.52957 -14.933448 3.588038
13.57717 -14.939762 3.5886674
13.631656 -14.92666 3.5673387
13.66132 -14.921356 3.5998204
15.481759 -15.075766 3.5631671
15.520887 -15.07646 3.5683219
15.560388 -15.07717 3.5729566
15.626366 -15.075017 3.5647042
15.669583 -15.074147 3.565618
15.721043 -15.075282 3.5679007
15.774306 -15.073448 3.5734718
15.824007 -15.0738 3.5757837
15.871559 -15.072789 3.5750072
15.913585 -15.06671 3.5755243
15.959094 -15.083144 3.5701995
13.2988 -14.892235 3.590718
13.327794 -14.865688 3.5819318
13.529617 -14.893396 3.5719836
13.58254 -14.894952 3.582042
13.625239 -14.877968 3.5806186
13.672153 -14.86823 3.591959
13.7204 -14.870365 3.5670993
13.931302 -14.882086 3.6054828
13.985855 -14.898278 3.5719843
14.019862 -14.913983 3.590812
15.876965 -15.03487 3.6003013
15.931773 -15.045897 3.5897133
15.968966 -15.053442 3.5825796
13.947791 -14.859715 3.5978084
13.979024 -14.868253 3.588259
14.026715 -14.863957 3.5822721
14.078754 -14.871362 3.5769973
14.129294 -14.862633 3.5738287
11.728247 -17.425344 3.6148012
11.755955 -17.406954 3.6207831
12.06992 -17.434881 3.6289244
12.120975 -17.429279 3.6209469
12.121025 -17.415318 3.6408107
13.179062 -17.414463 3.6139843
13.21442 -17.413893 3.6106842
13.281076 -17.422804 3.629288
13.329892 -17.410721 3.6332068
13.496973 -17.413792 3.621671
13.180655 -17.35261 3.6206634
13.225211 -17.358355 3.6265066
13.277801 -17.363445 3.6283448
13.326379 -17.367447 3.6291199
13.48403 -17.368301 3.6345785
13.527584 -17.384985 3.6339183
13.581276 -17.395452 3.6322725
13.632503 -17.387354 3.6285651
13.666366 -17.401411 3.6242456
14.025865 -17.419094 3.6390734
14.136859 -17.423862 3.6169519
14.165354 -17.429087 3.6352081
14.221673 -17.430048 3.6405249
14.281592 -17.435194 3.6436236
14.327615 -17.432596 3.635529
14.372285 -17.430248 3.62814
14.415909 -17.436316 3.6290095
14.463544 -17.429754 3.637557
13.200515 -17.340223 3.6095738
13.237783 -17.329115 3.6194947
13.27592 -17.322699 3.6338634
13.48321 -17.354935 3.6167557
13.539854 -17.33235 3.6257746
13.574374 -17.335234 3.6335406
13.624763 -17.33786 3.6171288
13.934906 -17.360691 3.6374345
13.976559 -17.363764 3.638067
14.02851 -17.35915 3.633642
14.066072 -17.347834 3.6427705
14.22707 -17.402344 3.6477427
14.284843 -17.401724 3.6304052
14.362099 -17.400055 3.6104827
14.434337 -17.39875 3.641556
14.474923 -17.388098 3.6304448
14.524196 -17.382372 3.6159902
14.578225 -17.391993 3.6465039
14.6354 -17.402704 3.6255889
14.668915 -17.3897 3.6112301
15.12629 -17.42388 3.6121287
15.620824 -17.442995 3.6558778
13.193816 -17.273012 3.6419759
13.231437 -17.260372 3.6249747
13.27069 -17.264086 3.6284218
13.500941 -17.271385 3.6289701
13.537247 -17.28047 3.6355686
13.577477 -17.26539 3.6251602
13.609542 -17.266243 3.6187875
13.933487 -17.31848 3.6377175
13.972413 -17.31418 3.6425693
14.028719 -17.316616 3.6351025
15.14968 -17.409883 3.6224213
15.170825 -17.410934 3.6096706
15.633641 -17.439201 3.6273837
15.674221 -17.420557 3.64502
13.200914 -17.223869 3.6361682
13.22804 -17.224154 3.6377277
13.267507 -17.231937 3.6318882
13.509592 -17.214684 3.6330853
13.540829 -17.245235 3.6298175
13.586505 -17.251293 3.6325357
13.614495 -17.262026 3.646004
13.935748 -17.259825 3.6377954
13.988558 -17.253975 3.6413715
14.016728 -17.255331 3.637229
15.67885 -17.392298 3.6319642
13.506571 -17.189438 3.6373396
13.543125 -17.187363 3.6440499
13.589391 -17.210728 3.6538479
13.90907 -17.223362 3.6472831
13.935901 -17.221151 3.6498871
13.978797 -17.22051 3.6550534
13.961875 -17.167809 3.6558068
15.601139 -17.209579 3.612812
15.67767 -17.207113 3.6072137
15.494436 -17.135845 3.613436
15.541636 -17.145021 3.6209857
15.572071 -17.156712 3.6128824
15.761428 -17.159571 3.6141481
15.882743 -17.187489 3.6209474
15.924671 -17.180494 3.6153576
15.458763 -17.096119 3.6247935
15.503178 -17.102528 3.6154237
15.534627 -17.112829 3.6077094
15.819386 -17.148748 3.6258872
15.847078 -17.149387 3.6192713
15.873544 -17.150236 3.6101718
15.504988 -17.078838 3.6263835
15.553047 -17.077442 3.6159532
12.13008 -15.10323 3.6261761
12.167747 -15.088075 3.6243784
11.672831 -14.996341 3.6173878
11.718641 -15.036489 3.616513
12.123417 -15.042036 3.6193094
12.161658 -15.044765 3.6178532
11.682426 -14.970282 3.6229408
11.715414 -14.977562 3.6210196
12.114854 -14.987372 3.625581
12.166718 -14.985716 3.6193204
15.52229 -15.200206 3.6101091
15.569247 -15.208665 3.6306524
15.614144 -15.21231 3.6343799
11.735563 -14.902968 3.6103897
11.76487 -14.940976 3.6116221
12.117016 -14.964778 3.623929
12.17037 -14.956379 3.616348
13.543042 -15.025347 3.6288414
13.575059 -15.035267 3.6250305
13.615828 -15.030557 3.6268117
13.650496 -15.017411 3.6296728
15.523893 -15.160021 3.6316426
15.559912 -15.160066 3.6245997
15.608575 -15.171143 3.6266031
15.655234 -15.171087 3.6121047
13.27238 -14.943745 3.6322098
13.33172 -14.960716 3.6255214
13.543393 -14.984126 3.624203
13.572191 -14.983837 3.636574
13.603453 -14.993701 3.6268897
13.975511 -14.989811 3.6496725
14.025854 -15.013977 3.6498058
14.056626 -15.02286 3.6472318
15.674856 -15.11039 3.6095161
15.726266 -15.113699 3.6137252
15.77528 -15.115354 3.6090407
13.301967 -14.901918 3.6073534
13.334276 -14.908238 3.6242733
13.363464 -14.912767 3.62428
13.50096 -14.930096 3.6098771
13.546673 -14.929512 3.6176102
13.583585 -14.937395 3.6232104
13.623451 -14.939819 3.6336033
13.661808 -14.942956 3.6332321
13.972312 -14.956143 3.6497643
14.024759 -14.942258 3.6498079
14.067574 -14.94838 3.6540596
15.745945 -15.05181 3.6231842
15.767458 -15.051345 3.6119113
13.340411 -14.878635 3.6131341
13.37375 -14.874675 3.6311519
13.51118 -14.889725 3.6127794
13.596395 -14.909258 3.6323199
13.636297 -14.899159 3.6319008
13.671214 -14.88942 3.6371818
13.886046 -14.897284 3.6430066
13.927443 -14.896091 3.6333587
13.975279 -14.911708 3.6380126
14.035162 -14.901583 3.6328485
14.073289 -14.90834 3.6318107
15.82893 -15.034942 3.6140285
13.882527 -14.861719 3.62624
13.979745 -14.859626 3.6267514
14.044668 -14.8598 3.6245611
14.076192 -14.860042 3.6315632
14.110341 -14.863402 3.6339438
10.906304 -17.396435 3.6942294
12.111211 -17.437788 3.6635253
10.874962 -17.304157 3.6929758
10.915255 -17.338762 3.6985552
12.118403 -17.421448 3.6948793
10.886135 -17.279602 3.7011168
10.901739 -17.298103 3.7054791
13.226031 -17.407652 3.6702857
13.262634 -17.406647 3.6705542
13.323009 -17.409588 3.6695359
13.362847 -17.407898 3.6695888
14.117195 -17.451393 3.6969922
14.15084 -17.451092 3.684139
13.242319 -17.3685 3.6916242
13.28174 -17.34638 3.6668077
13.344 -17.370558 3.6653717
13.992179 -17.408546 3.6926677
14.026005 -17.402281 3.6788766
14.077788 -17.419113 3.6732767
14.125299 -17.424129 3.6868484
14.178989 -17.428617 3.6752565
14.226704 -17.433712 3.6724794
14.273394 -17.431538 3.6761186
14.314693 -17.430408 3.6891131
14.371299 -17.437469 3.691519
13.231447 -17.331505 3.6621919
13.27702 -17.315865 3.6888056
13.53132 -17.324802 3.6643941
13.58437 -17.323395 3.6689405
13.621655 -17.320498 3.6671088
14.030501 -17.386026 3.6789353
14.06523 -17.37174 3.6686149
14.336234 -17.407118 3.6737447
14.381078 -17.389874 3.6909065
14.417946 -17.388325 3.6743934
14.474776 -17.392097 3.6938992
14.521092 -17.392071 3.672919
15.573623 -17.447668 3.6978149
15.605049 -17.445665 3.6774292
15.680775 -17.450521 3.6952236
13.244681 -17.269073 3.6708403
13.266616 -17.265694 3.6753981
13.56661 -17.291555 3.6751299
13.978509 -17.31008 3.6706653
14.021065 -17.303324 3.6786385
15.58542 -17.39349 3.6952674
15.632554 -17.414402 3.6822906
15.681973 -17.396263 3.6844461
13.208717 -17.219725 3.6632366
13.233361 -17.219013 3.6646664
13.576969 -17.23173 3.6673336
13.90548 -17.242872 3.6586375
13.940784 -17.241859 3.6575673
13.977349 -17.247723 3.675684
14.01107 -17.263414 3.6588092
15.648299 -17.391062 3.6925652
15.680961 -17.390903 3.6692595
13.506492 -17.184805 3.6732261
13.548633 -17.189913 3.6899405
13.573715 -17.180574 3.6697524
13.906367 -17.183874 3.6611164
13.939033 -17.21007 3.6927285
13.983067 -17.216373 3.6656184
13.93914 -17.174896 3.673471
13.984328 -17.162582 3.66361
10.972359 -15.095142 3.6972249
10.926583 -15.016896 3.6826527
10.956998 -15.017058 3.6960981
10.919001 -14.971846 3.6978788
10.955497 -14.979255 3.7043521
12.151396 -15.044146 3.663193
10.913373 -14.926259 3.6930506
11.705358 -14.980412 3.692153
12.146833 -14.977041 3.6706357
13.621387 -15.085085 3.6638105
10.983468 -14.882417 3.6876881
11.003931 -14.894492 3.7055273
13.588186 -15.035074 3.6655197
13.62477 -15.036827 3.6825168
13.656421 -15.033969 3.6750271
13.588826 -14.995684 3.6671772
13.61821 -14.995782 3.667048
13.656167 -14.997196 3.667542
13.987275 -15.000185 3.6561427
14.017518 -15.006641 3.6799746
14.063967 -15.012768 3.6833501
13.319419 -14.908166 3.664789
13.582513 -14.937612 3.6595986
13.625679 -14.938985 3.6802859
13.659009 -14.930172 3.6712351
13.985293 -14.949111 3.6659906
14.023792 -14.965281 3.6704524
14.067874 -14.976666 3.6988256
13.676529 -14.899049 3.6741314
13.985057 -14.923311 3.6672158
14.024122 -14.922396 3.6766081
13.922657 -14.86433 3.6582761
14.084637 -14.86333 3.6689334
10.882345 -17.453722 3.747946
10.888689 -17.4189 3.7274363
10.917871 -17.419144 3.7430179
10.946253 -17.414925 3.754312
10.882967 -17.375721 3.7323399
10.917228 -17.373459 3.7408855
10.958108 -17.384136 3.7482047
11.011127 -17.381516 3.7464898
10.887194 -17.316929 3.7326021
10.923955 -17.325722 3.7342384
10.968921 -17.32938 3.7446833
11.02922 -17.334087 3.7496548
11.067286 -17.333735 3.7519507
11.124783 -17.333189 3.7552259
11.181623 -17.33272 3.7574799
11.58882 -17.362978 3.7369401
11.602555 -17.385624 3.7474704
12.132753 -17.395477 3.7444437
10.876787 -17.268656 3.7236173
10.924262 -17.275642 3.7353134
10.965664 -17.278204 3.744621
11.00759 -17.275358 3.7525406
11.151509 -17.279888 3.7555666
11.177537 -17.295555 3.7424765
11.220894 -17.290482 3.7465515
11.547722 -17.308872 3.7541351
11.58197 -17.309929 3.7417793
11.618373 -17.309641 3.7498317
14.07024 -17.452051 3.7115307
10.900389 -17.247421 3.7432539
10.934293 -17.246431 3.7526789
11.178366 -17.24633 3.730793
11.577547 -17.27688 3.7442436
11.62751 -17.2715 3.7463481
11.680305 -17.260311 3.7438569
11.712019 -17.278654 3.7450399
12.074118 -17.275497 3.7424476
14.038303 -17.405491 3.7347686
14.074759 -17.423136 3.7223141
14.122433 -17.415937 3.7155919
14.181573 -17.402523 3.7088184
14.339221 -17.442032 3.7082877
11.599074 -17.221151 3.7564754
14.233612 -17.388599 3.7194359
14.28163 -17.385036 3.7241488
14.330577 -17.385813 3.7321291
14.373633 -17.393787 3.7245042
14.433142 -17.397076 3.7124963
14.818583 -17.391581 3.749779
15.330507 -17.42886 3.7413328
15.527017 -17.448799 3.7151966
15.582251 -17.451786 3.7479327
15.626911 -17.451275 3.7236519
12.697105 -17.215921 3.7523956
12.722542 -17.215269 3.7569137
14.351857 -17.35952 3.7286708
14.375175 -17.360128 3.7204647
14.878119 -17.377562 3.7442021
15.53584 -17.404373 3.7349105
15.58033 -17.409143 3.7371156
15.622821 -17.394453 3.7291939
15.670808 -17.395706 3.714308
12.244963 -17.172176 3.7549963
12.290215 -17.172731 3.7555201
10.933187 -15.100401 3.7197082
10.959715 -15.100821 3.7453301
10.9878 -15.104395 3.7541454
10.915683 -15.061952 3.7297895
10.957979 -15.067878 3.7484071
10.886613 -15.018647 3.7166176
10.926852 -15.023884 3.7326062
10.962353 -15.031392 3.7428694
11.013595 -15.017302 3.7304902
11.06554 -15.029574 3.7487724
11.120447 -15.031781 3.7443407
11.161633 -15.035074 3.7458508
11.217101 -15.022666 3.7470663
11.667702 -15.06063 3.7358484
11.69088 -15.080113 3.7414024
10.923098 -14.959769 3.7272639
10.962336 -14.974236 3.7411714
11.013602 -14.987 3.7525005
11.118621 -14.999173 3.7348289
11.191082 -14.992388 3.73124
11.220981 -14.991955 3.7425032
11.617532 -14.998527 3.7515032
11.662136 -15.021526 3.7378647
10.929489 -14.925242 3.7200558
10.972244 -14.922775 3.736125
11.191319 -14.949849 3.7368793
11.261296 -14.965989 3.740325
11.665708 -14.966424 3.7304466
11.704281 -14.973604 3.7431357
12.133192 -14.978057 3.7490697
10.94822 -14.894028 3.7183867
10.971573 -14.892524 3.7388444
11.023427 -14.893476 3.7295401
11.6804 -14.919662 3.7364461
12.135107 -14.950182 3.7345729
13.620944 -14.982859 3.7087955
14.050839 -14.989062 3.7147956
14.057389 -14.985933 3.7147143
14.058506 -14.921114 3.7116666
10.913354 -17.451723 3.7617235
10.930161 -17.436123 3.77159
10.969934 -17.426889 3.7801023
11.014954 -17.411495 3.797775
10.934102 -17.369492 3.767056
10.971559 -17.374922 3.7804563
11.007717 -17.359161 3.7841928
11.078951 -17.372272 3.760597
11.1282 -17.374004 3.7842882
11.172695 -17.381325 3.7788541
11.218007 -17.397909 3.7816451
12.13978 -17.430899 3.806062
10.931994 -17.329865 3.765805
10.972789 -17.323898 3.7733736
11.018479 -17.340874 3.7789912
11.076309 -17.335953 3.7770655
11.124308 -17.340685 3.7833681
11.172215 -17.346411 3.7870345
11.220556 -17.343227 3.7824802
11.583339 -17.356337 3.7818844
11.622276 -17.358849 3.7778075
11.676608 -17.357759 3.7883058
11.714312 -17.365229 3.7832861
12.138195 -17.397345 3.79845
12.148859 -17.401833 3.7583687
10.980082 -17.283026 3.7775619
11.123468 -17.304718 3.7717211
11.176414 -17.292591 3.7728896
11.226644 -17.293015 3.7836268
11.540952 -17.32012 3.7816241
11.577064 -17.315887 3.7854228
11.623692 -17.321297 3.784148
11.675739 -17.3193 3.7909591
11.720936 -17.316893 3.79498
11.996181 -17.324049 3.7989681
12.022866 -17.332983 3.7993884
12.07047 -17.345402 3.7883968
12.127688 -17.34907 3.769932
12.17979 -17.342396 3.7722759
12.226934 -17.346504 3.7829413
12.280741 -17.344666 3.7948878
12.322154 -17.343336 3.8028729
12.614206 -17.360273 3.7960579
10.964706 -17.245207 3.7654276
11.12972 -17.24683 3.7767544
11.175044 -17.247284 3.7772181
11.224858 -17.245029 3.7802362
11.581421 -17.266058 3.7770684
11.635831 -17.272749 3.7703836
11.676081 -17.276911 3.7856176
11.720256 -17.289858 3.7986987
11.981209 -17.292562 3.7995532
12.035147 -17.293234 3.7924378
12.080683 -17.296131 3.7981682
12.125776 -17.282873 3.796335
12.1818 -17.287886 3.7897539
12.230189 -17.305408 3.7949383
12.279844 -17.293457 3.8000574
12.324716 -17.292856 3.8013322
12.379929 -17.29195 3.8043592
13.260789 -17.352198 3.8024814
11.592301 -17.226648 3.7852631
11.633655 -17.23003 3.7892489
11.678653 -17.222059 3.7868743
11.710254 -17.235397 3.806294
12.006195 -17.229609 3.8070886
12.029104 -17.236855 3.7855597
12.078792 -17.247375 3.7908142
12.127571 -17.256165 3.7895939
12.182045 -17.251842 3.7897129
12.230046 -17.251162 3.7915344
12.280451 -17.256409 3.7862694
12.331521 -17.263174 3.7857323
12.378045 -17.260292 3.7882686
12.430804 -17.274019 3.7961264
12.476572 -17.270334 3.7961309
12.514222 -17.279808 3.8071635
13.284595 -17.322111 3.798136
14.691724 -17.392305 3.8051896
14.728275 -17.394672 3.7868145
14.771176 -17.395578 3.7805071
14.819803 -17.398342 3.8011522
14.857149 -17.397388 3.8044066
15.309809 -17.428345 3.7576654
15.489758 -17.443373 3.800071
15.5224 -17.443422 3.7766497
15.56039 -17.45163 3.763581
12.049803 -17.182146 3.759177
12.092255 -17.200083 3.7771142
12.138474 -17.1998 3.7774637
12.191087 -17.200441 3.7797012
12.233124 -17.210707 3.7944527
12.276593 -17.219559 3.7812221
12.341415 -17.225672 3.7846694
12.380408 -17.228838 3.7870984
12.423949 -17.22884 3.7881756
12.484979 -17.232067 3.7951329
12.529228 -17.229164 3.8038146
12.744199 -17.214537 3.7829227
12.772362 -17.214546 3.7815385
13.253054 -17.256624 3.7857399
13.268143 -17.277462 3.8045087
14.72677 -17.366882 3.7798445
14.774311 -17.372828 3.7828927
14.832529 -17.377382 3.7671466
15.446291 -17.393421 3.7963982
15.488175 -17.393307 3.7861254
15.530032 -17.394249 3.7842653
15.569434 -17.396414 3.7657864
12.052355 -17.165277 3.7788937
12.084479 -17.166676 3.7792778
12.134484 -17.167173 3.7827024
12.185625 -17.169569 3.772929
12.22833 -17.17247 3.7730072
12.283607 -17.174292 3.7776008
12.340051 -17.173767 3.7763786
12.385998 -17.174479 3.7693572
12.433504 -17.172899 3.7787583
12.480912 -17.173573 3.7779272
12.532858 -17.171804 3.7891009
12.566433 -17.172792 3.7973921
12.691827 -17.170345 3.7983959
12.734169 -17.171116 3.7880518
12.789763 -17.185518 3.7840528
12.839072 -17.192118 3.7856243
12.89711 -17.214645 3.7632341
12.937006 -17.214355 3.7647753
13.245764 -17.208994 3.7875881
13.277474 -17.207512 3.7899175
13.326881 -17.205471 3.7974696
12.761776 -17.144983 3.7654362
12.788862 -17.145298 3.7648706
12.830714 -17.146011 3.7628303
12.888725 -17.162022 3.7789953
12.943448 -17.1688 3.7906969
13.261918 -17.159485 3.8069384
13.291568 -17.160337 3.7873528
13.337876 -17.158768 3.7967927
13.596642 -17.188747 3.7978044
13.623055 -17.2031 3.7945671
13.614769 -17.152208 3.7941823
14.386993 -17.169912 3.802525
10.944889 -15.104378 3.7566566
11.003335 -15.102604 3.7682555
10.968325 -15.079826 3.768564
11.006639 -15.078197 3.7837715
11.134128 -15.074109 3.7839713
11.170491 -15.073925 3.7877109
11.226111 -15.082204 3.7918088
11.260139 -15.094628 3.7931933
11.630424 -15.099831 3.801096
11.665023 -15.099908 3.7907872
11.704866 -15.1082 3.8019211
11.743146 -15.107197 3.79726
12.169302 -15.127621 3.7927794
12.203548 -15.125672 3.7858186
10.935136 -15.028775 3.777386
10.970929 -15.026136 3.770128
11.013024 -15.023813 3.7836499
11.133294 -15.044606 3.7609005
11.165617 -15.034157 3.7829838
11.212758 -15.036858 3.7790613
11.264586 -15.045414 3.7761693
11.295364 -15.059281 3.7906995
11.622506 -15.064516 3.7915332
11.667171 -15.061943 3.7859411
11.712114 -15.062403 3.7861831
11.764032 -15.074295 3.7961299
12.231418 -15.12197 3.7934587
12.527876 -15.109311 3.7825868
12.565839 -15.107743 3.79281
10.944269 -14.959707 3.7703614
10.977392 -14.967788 3.768811
11.002645 -14.956979 3.7757487
11.050349 -14.987565 3.7573693
11.132898 -14.987399 3.7632258
11.174047 -14.995008 3.7791941
11.223274 -14.992004 3.7799604
11.264787 -14.994699 3.7953238
11.62484 -15.01123 3.7859178
11.666071 -15.004625 3.7880404
11.71146 -15.01798 3.7861838
12.070421 -15.037497 3.7895246
12.121417 -15.04056 3.7912614
12.151089 -15.042388 3.8032148
12.326827 -15.051135 3.8045416
12.370687 -15.049749 3.8054817
12.52369 -15.085957 3.8005025
12.582748 -15.084527 3.7967675
10.973293 -14.939302 3.7637401
11.005919 -14.951229 3.7976494
11.191941 -14.948069 3.7855134
11.224839 -14.947179 3.7925029
11.257963 -14.946285 3.7994318
11.630795 -14.965611 3.7831359
11.67882 -14.964763 3.7879858
11.719659 -14.969351 3.7843063
11.753073 -14.948218 3.791641
12.073362 -14.991571 3.7866728
12.116503 -14.985749 3.788883
12.161274 -14.986013 3.8010962
10.9921 -14.891177 3.7632058
11.62997 -14.939267 3.7959428
11.66293 -14.934517 3.7766688
11.713262 -14.927545 3.7760129
11.781193 -14.947739 3.7983413
12.096139 -14.946436 3.7585936
12.129704 -14.949519 3.7788823
12.170425 -14.94596 3.7956517
12.233377 -14.94691 3.7844446
12.271455 -14.946018 3.8013101
12.187572 -14.91969 3.7789345
12.222406 -14.914832 3.7837775
12.268481 -14.913247 3.7966866
12.324988 -14.912198 3.797893
12.384098 -14.914861 3.7993484
12.42832 -14.916674 3.8012938
12.455483 -14.917257 3.8058031
12.535244 -14.930137 3.7938335
12.640058 -14.919445 3.7796905
12.671185 -14.928482 3.78617
12.836975 -14.927332 3.7908077
13.274521 -14.946933 3.8047628
12.343033 -14.872263 3.8020766
12.388138 -14.874698 3.8035507
12.508836 -14.880501 3.790391
12.595123 -14.873431 3.8057039
13.279074 -14.928107 3.7987092
13.312751 -14.898446 3.7916727
10.972363 -17.389631 3.8098314
11.012546 -17.358973 3.8158674
11.173022 -17.380222 3.8086877
11.216517 -17.387415 3.8139882
11.613214 -17.40288 3.8150518
11.661095 -17.41024 3.8349662
11.705408 -17.407772 3.8444591
12.140919 -17.446129 3.8338566
12.161742 -17.437305 3.8386009
11.134405 -17.324341 3.8132288
11.170902 -17.322769 3.8165874
11.210632 -17.321222 3.8158822
11.568287 -17.34757 3.8271518
11.632688 -17.365669 3.825223
11.679819 -17.369766 3.8291306
11.73 -17.376701 3.825845
12.076756 -17.39562 3.8310976
12.131734 -17.414646 3.8232152
12.174972 -17.410666 3.8408141
12.224594 -17.41815 3.8443666
12.267412 -17.41143 3.845829
12.321601 -17.409765 3.8483965
12.376545 -17.406401 3.8508396
12.42323 -17.406509 3.8490317
12.474163 -17.402075 3.8495605
12.515747 -17.403276 3.8564284
11.589343 -17.3207 3.8111703
11.633063 -17.314133 3.8215342
11.681215 -17.322989 3.8269269
11.720435 -17.332304 3.8215609
12.032619 -17.340235 3.8188403
12.077799 -17.341204 3.8250632
12.129275 -17.345715 3.8370469
12.180465 -17.342951 3.842654
12.225656 -17.345509 3.8410103
12.281027 -17.345589 3.8439183
12.334978 -17.345778 3.8315907
12.375237 -17.345867 3.8342421
12.435039 -17.350628 3.83621
12.481635 -17.359522 3.8462687
12.527662 -17.371096 3.8467343
12.572539 -17.379292 3.8529336
12.622215 -17.38051 3.8415544
12.666389 -17.377968 3.8460171
12.723937 -17.385229 3.8560154
11.730641 -17.262295 3.8091631
11.993707 -17.292856 3.8271325
12.03144 -17.307512 3.8241444
12.082154 -17.301842 3.8273711
12.129422 -17.310476 3.8266704
12.177389 -17.30612 3.8303216
12.225656 -17.310246 3.8364398
12.277391 -17.309237 3.8337255
12.32893 -17.310808 3.8382616
12.379945 -17.310266 3.838423
12.428377 -17.316637 3.8365548
12.476178 -17.31992 3.836092
12.527838 -17.322395 3.8409417
12.580285 -17.324514 3.8414452
12.627347 -17.32436 3.8435109
12.67827 -17.325193 3.8458908
12.72573 -17.332188 3.8470476
12.774722 -17.34152 3.8450594
12.826542 -17.338255 3.8489761
12.879647 -17.339853 3.8496339
12.937034 -17.336653 3.8525548
12.975245 -17.344162 3.8547401
13.249347 -17.35792 3.830637
13.288378 -17.357132 3.8371487
13.312636 -17.356321 3.8418806
13.732 -17.405396 3.8348985
13.764839 -17.389761 3.8419802
13.807089 -17.37907 3.851506
11.676568 -17.234331 3.8083827
11.708549 -17.234457 3.8112242
12.000624 -17.228651 3.8225489
12.028306 -17.233601 3.8143532
12.081031 -17.234015 3.8204019
12.133359 -17.238367 3.8278
12.180887 -17.255768 3.8300622
12.231567 -17.257792 3.831223
12.284841 -17.257814 3.83272
12.331531 -17.260405 3.83289
12.378162 -17.260466 3.8307688
12.430864 -17.263357 3.8337836
12.482867 -17.279659 3.8334081
12.529088 -17.281984 3.829757
12.578502 -17.279104 3.8327641
12.632523 -17.278135 3.83518
12.681359 -17.282269 3.8379288
12.732109 -17.290119 3.8421361
12.778161 -17.293194 3.8424368
12.83154 -17.290401 3.8437641
12.875101 -17.288982 3.8366933
12.930243 -17.287716 3.8327956
12.976351 -17.28788 3.840256
13.225334 -17.328619 3.8515763
13.284043 -17.3351 3.8430302
13.324251 -17.317984 3.8485703
13.631086 -17.319723 3.8433542
13.689725 -17.364086 3.8547418
13.728642 -17.36433 3.8485458
13.786757 -17.363638 3.8360085
13.824984 -17.367607 3.8391922
14.526529 -17.395163 3.8543208
14.584702 -17.393976 3.8392746
14.629255 -17.386068 3.8382123
14.668088 -17.392416 3.8155224
14.737434 -17.397097 3.8466122
14.776948 -17.396627 3.8301754
14.815592 -17.437016 3.8480937
14.850776 -17.436646 3.8296959
15.428666 -17.444969 3.8421495
15.46806 -17.44319 3.8163002
12.028928 -17.203312 3.8196692
12.090191 -17.202604 3.8193471
12.147018 -17.213579 3.8204074
12.180909 -17.217381 3.8219178
12.229252 -17.223791 3.8297014
12.281384 -17.214031 3.825541
12.335281 -17.217535 3.8273165
12.382587 -17.222321 3.8292298
12.435486 -17.221132 3.8309226
12.485832 -17.2288 3.8376818
12.536721 -17.232769 3.8316231
12.58157 -17.228716 3.8333368
12.633816 -17.229288 3.8360662
12.688303 -17.233328 3.8363862
12.736545 -17.238344 3.8367372
12.786955 -17.244211 3.8353601
12.830608 -17.244883 3.8392687
12.87806 -17.245651 3.8399661
12.930033 -17.243179 3.8438003
12.966251 -17.249374 3.8443298
13.242364 -17.2749 3.8491983
13.281863 -17.261517 3.8405008
13.320799 -17.263971 3.8444455
13.370275 -17.270597 3.8511455
13.575801 -17.266644 3.8410892
13.668473 -17.318073 3.8515091
13.766207 -17.291752 3.8536947
14.021285 -17.321482 3.8545449
14.49883 -17.367054 3.8558838
14.596572 -17.348522 3.8421526
14.673614 -17.37833 3.8339064
14.720829 -17.377544 3.8178012
14.786202 -17.38275 3.8465683
14.834613 -17.381727 3.8368626
14.881057 -17.381664 3.8181829
15.385633 -17.394258 3.8433619
15.436845 -17.394135 3.8337977
15.474835 -17.393566 3.8224247
12.499184 -17.183073 3.8149478
12.537407 -17.181194 3.8252404
12.58762 -17.174679 3.8248656
12.641753 -17.174604 3.8208351
12.690388 -17.181419 3.8225303
12.735005 -17.187443 3.8197894
12.788537 -17.195862 3.8297243
12.839457 -17.192257 3.8293529
12.887432 -17.20339 3.8291545
12.941302 -17.203602 3.8248403
12.973276 -17.194984 3.8332214
13.240171 -17.226316 3.845902
13.28592 -17.224497 3.8239758
13.320887 -17.226933 3.8399169
13.583107 -17.237198 3.8496273
13.639351 -17.248077 3.8533843
13.685205 -17.260172 3.8424861
13.980595 -17.248177 3.8550272
14.037025 -17.262239 3.8448026
12.894741 -17.169519 3.8210719
12.934681 -17.16888 3.8236473
13.241686 -17.163996 3.8264735
13.283627 -17.161961 3.8348873
13.316589 -17.158562 3.8519351
13.554259 -17.19232 3.8462877
13.589686 -17.171913 3.8401723
13.630374 -17.196911 3.831265
13.998898 -17.216858 3.834573
14.034809 -17.220602 3.837399
13.580363 -17.157053 3.8309698
13.616331 -17.156952 3.8213532
14.012134 -17.140644 3.8282576
14.031035 -17.173735 3.8334854
14.085302 -17.178671 3.8301516
14.140233 -17.178131 3.8428183
14.189043 -17.175795 3.8452449
14.241118 -17.169781 3.8467629
14.289948 -17.168503 3.8420835
14.338761 -17.170506 3.8263378
14.045685 -17.137094 3.8486347
14.092744 -17.137512 3.8510718
14.142156 -17.136051 3.8484418
14.191137 -17.134224 3.8476598
14.24009 -17.132217 3.8475034
14.289399 -17.130013 3.8479667
14.3455 -17.145563 3.8355827
14.394279 -17.140711 3.8440499
14.440663 -17.13298 3.8503916
14.489824 -17.132845 3.8499513
14.539469 -17.142063 3.8465812
14.657078 -17.13496 3.8550887
14.679865 -17.136133 3.8324904
14.749609 -17.157454 3.8496735
14.772277 -17.158293 3.8341005
15.053799 -17.177599 3.8493323
15.101995 -17.163456 3.8475308
14.40019 -17.111685 3.8566885
14.448687 -17.108555 3.8560345
14.474206 -17.106649 3.8566082
