# .PCD v0.7 - Point Cloud Data file format
VERSION 0.7
FIELDS x y z
SIZE 4 4 4
TYPE F F F
COUNT 1 1 1
WIDTH 1465
HEIGHT 1
VIEWPOINT 0 0 0 1 0 0 0
POINTS 1465
DATA ascii
14.606317 -36.149986 -0.39062288
15.337862 -36.175655 -0.40229827
15.378835 -36.190769 -0.4080691
15.417189 -36.193604 -0.41875029
15.476049 -36.20649 -0.41463664
15.507763 -36.194565 -0.42592132
16.589821 -36.254066 -0.41940728
16.621843 -36.261616 -0.4111996
16.672066 -36.26944 -0.41458642
16.723919 -36.269436 -0.41267282
16.774712 -36.271423 -0.41509634
16.825592 -36.279392 -0.41434324
16.872261 -36.275982 -0.40656787
16.918371 -36.28484 -0.40836722
16.962374 -36.287567 -0.39606142
13.146252 -36.005104 -0.40596935
13.177168 -36.004551 -0.4021998
13.231131 -36.001362 -0.40524524
13.267556 -35.993004 -0.39361495
14.345953 -36.064548 -0.41665012
14.408735 -36.074749 -0.41482836
14.484526 -36.073639 -0.42302328
14.540052 -36.072037 -0.40745795
14.567719 -36.07954 -0.40070209
15.283918 -36.123413 -0.3938176
15.328745 -36.121262 -0.40495685
15.371208 -36.132378 -0.40425521
15.424519 -36.155262 -0.42318782
16.593685 -36.189816 -0.42145425
16.636549 -36.211857 -0.4173145
16.669205 -36.217342 -0.41321963
16.718449 -36.21907 -0.41655514
16.774288 -36.216995 -0.41395277
16.819004 -36.229462 -0.4145236
16.874025 -36.22847 -0.41439962
16.932043 -36.233719 -0.40380239
16.9622 -36.23494 -0.39565927
14.55116 -36.041832 -0.42740005
14.574744 -36.035969 -0.40025786
15.285327 -36.098125 -0.40571663
15.333751 -36.0746 -0.40344027
15.375139 -36.077389 -0.41154489
16.63525 -36.163425 -0.4132418
16.673651 -36.165577 -0.4031589
16.721601 -36.170486 -0.40348744
16.783415 -36.176479 -0.40687743
16.836344 -36.175747 -0.40371743
16.884619 -36.179066 -0.40727419
16.928732 -36.18708 -0.40798885
16.967199 -36.18639 -0.39391869
14.57202 -35.995644 -0.40152231
14.623926 -35.995285 -0.39303014
15.297952 -36.033581 -0.39747518
15.33728 -36.041759 -0.39612007
15.380569 -36.035172 -0.42119363
16.597931 -36.12389 -0.42204213
16.636532 -36.113667 -0.41251159
16.678152 -36.111557 -0.40386853
16.73765 -36.114037 -0.40466785
16.791702 -36.124851 -0.3981826
16.831385 -36.122368 -0.39337507
16.878653 -36.133255 -0.3912527
16.932173 -36.147758 -0.39488405
15.300735 -35.980427 -0.41011712
15.335542 -35.976337 -0.39901403
15.36481 -35.975544 -0.41132408
16.636675 -36.062824 -0.40383452
16.681353 -36.06974 -0.41095057
16.726082 -36.07299 -0.40652153
16.781603 -36.074913 -0.40796795
16.828691 -36.075096 -0.40378097
16.888882 -36.085571 -0.3985683
16.936073 -36.082241 -0.40103608
16.965656 -36.083759 -0.38726413
16.605019 -36.020401 -0.42251229
16.643797 -36.015823 -0.40462559
16.689064 -36.018524 -0.406535
16.745527 -36.024372 -0.40434933
16.788124 -36.025478 -0.40232983
16.836733 -36.027992 -0.39486706
16.884428 -36.034313 -0.4073934
16.931128 -36.029858 -0.39558125
16.841246 -35.980083 -0.40512985
16.88896 -35.9818 -0.4049727
16.939392 -35.986988 -0.39847255
16.98489 -35.984276 -0.38877195
12.785434 -37.861362 -0.33934274
12.835375 -37.878704 -0.355479
12.867627 -37.874615 -0.35812449
12.810318 -37.825371 -0.33498406
12.889428 -37.819149 -0.36872578
12.899856 -37.843754 -0.35800323
13.23585 -37.84491 -0.34046724
13.261645 -37.848808 -0.36607563
13.309215 -37.876663 -0.35725403
12.893795 -37.800613 -0.35544625
12.91729 -37.793026 -0.36047792
13.022275 -37.778332 -0.35033351
12.9941 -37.76762 -0.33906034
13.012603 -37.751114 -0.35432962
13.068681 -37.747795 -0.35725343
14.214229 -37.813251 -0.37821037
14.272 -37.816563 -0.34341818
13.048993 -37.719543 -0.34688365
13.053741 -37.720463 -0.37177402
13.182135 -37.700089 -0.35412636
14.036146 -37.750931 -0.35507667
14.068776 -37.751038 -0.35427618
14.119192 -37.770271 -0.35514539
14.172739 -37.777039 -0.36004615
13.197451 -37.672482 -0.34900796
13.221292 -37.65929 -0.35592735
13.282324 -37.641956 -0.36986601
13.322044 -37.655956 -0.3494176
14.530113 -37.719303 -0.3673822
14.573382 -37.725109 -0.37734616
14.707704 -37.727009 -0.37570828
13.287907 -37.613003 -0.35676071
13.319072 -37.616165 -0.34505916
14.527079 -37.702465 -0.36148471
14.733853 -37.704102 -0.35336018
14.756733 -37.68623 -0.35386491
13.291916 -37.562397 -0.35221836
13.323112 -37.569401 -0.35166103
14.492577 -37.620659 -0.37754226
14.50965 -37.645218 -0.36906195
14.591798 -37.619919 -0.37131795
14.735807 -37.653809 -0.35898423
14.758157 -37.669613 -0.33739206
15.458056 -37.673325 -0.33446997
15.486299 -37.675896 -0.35400689
13.293438 -37.509888 -0.3586362
13.328547 -37.515759 -0.34786779
13.384124 -37.525803 -0.34385556
14.54796 -37.594948 -0.3674047
14.579309 -37.586842 -0.36310178
14.695295 -37.612797 -0.36572176
14.728099 -37.589279 -0.35177055
15.446728 -37.633904 -0.34327292
15.495923 -37.637249 -0.34230745
15.541277 -37.628719 -0.35964945
13.302489 -37.468296 -0.35599196
13.326805 -37.466202 -0.34471938
14.741733 -37.546417 -0.35048971
15.438465 -37.592289 -0.35675523
15.487577 -37.594826 -0.35366884
15.52864 -37.588825 -0.37485841
16.82185 -37.677071 -0.34654143
13.307135 -37.412876 -0.36056253
13.327217 -37.418819 -0.34473839
14.576952 -37.467106 -0.36545023
14.704763 -37.504787 -0.36308783
14.738744 -37.514721 -0.35033137
15.447985 -37.55756 -0.35656661
15.497149 -37.557903 -0.36347538
15.532436 -37.554459 -0.37030578
16.754061 -37.618919 -0.3777149
16.793457 -37.626652 -0.36018223
16.833065 -37.622807 -0.3403177
13.194632 -37.363453 -0.33336398
13.253464 -37.368 -0.34185359
13.306736 -37.364456 -0.35742468
13.326637 -37.359703 -0.34355411
13.389552 -37.371681 -0.3674258
14.595943 -37.431606 -0.35334301
14.643955 -37.429527 -0.35985523
15.232315 -37.482586 -0.33423054
15.290721 -37.47451 -0.3319543
15.394085 -37.497353 -0.35454151
15.447272 -37.489708 -0.35448653
15.485968 -37.485378 -0.3663871
16.762178 -37.557659 -0.37543404
16.792442 -37.55481 -0.36167392
13.2713 -37.325199 -0.37497687
13.30807 -37.315529 -0.35959074
13.332195 -37.322983 -0.34237432
14.456974 -37.369766 -0.37939513
14.586342 -37.410389 -0.33559936
14.646992 -37.419537 -0.33331808
14.700858 -37.388531 -0.35479879
15.359895 -37.452744 -0.33142969
15.403082 -37.441689 -0.34935665
15.444109 -37.445332 -0.35284311
15.484365 -37.444176 -0.36867517
16.713148 -37.510937 -0.35785902
16.755186 -37.524422 -0.36411098
16.79472 -37.528042 -0.35655829
16.839731 -37.538898 -0.33980772
13.310636 -37.266006 -0.35599869
13.338261 -37.269104 -0.34306556
14.706321 -37.354374 -0.34853774
14.754269 -37.326893 -0.33927038
16.720526 -37.470531 -0.37626511
16.761503 -37.475475 -0.37124518
16.796696 -37.475765 -0.36054093
16.839491 -37.475414 -0.34017321
13.30803 -37.215366 -0.35352999
13.333426 -37.209412 -0.34000614
14.678481 -37.311214 -0.35117555
15.369183 -37.317303 -0.35513106
15.410203 -37.356163 -0.3609736
15.433086 -37.352955 -0.3493019
16.694017 -37.418827 -0.36594445
16.761063 -37.423485 -0.36855343
16.801628 -37.423851 -0.35790575
16.846964 -37.427189 -0.33945206
13.31769 -37.164665 -0.35469159
13.335269 -37.179749 -0.33065212
13.389604 -37.188057 -0.36662859
14.659646 -37.258556 -0.35070395
14.707253 -37.245426 -0.34703621
15.365838 -37.293045 -0.35790372
15.414438 -37.30201 -0.35589299
15.451735 -37.282143 -0.36616549
16.76243 -37.374229 -0.37225267
16.804195 -37.374626 -0.3600553
16.846476 -37.379959 -0.34072837
13.277844 -37.12534 -0.36240169
13.314751 -37.121181 -0.35347676
13.342159 -37.132256 -0.33210179
14.721522 -37.199535 -0.35736573
14.745167 -37.199818 -0.33736894
15.372076 -37.254189 -0.34811133
15.414384 -37.248867 -0.35412148
15.449288 -37.24873 -0.37163788
16.716269 -37.3284 -0.3713063
16.763006 -37.326511 -0.36882597
16.807264 -37.329784 -0.3556098
16.847998 -37.33514 -0.34101823
16.888184 -37.356335 -0.34191149
13.282259 -37.059799 -0.36773446
13.307813 -37.065365 -0.34873015
13.345487 -37.083389 -0.33875841
14.681023 -37.154987 -0.35745803
14.719172 -37.154858 -0.35250768
15.362008 -37.192528 -0.35420874
15.416686 -37.192547 -0.37236986
16.710546 -37.267269 -0.36888653
16.764416 -37.269695 -0.3671425
16.808807 -37.275208 -0.36071771
16.853907 -37.277515 -0.34067345
12.279985 -36.931446 -0.3538326
12.321767 -36.952965 -0.35624865
12.361751 -36.960587 -0.35670835
12.55302 -36.952271 -0.37813991
12.737972 -36.964596 -0.35680774
13.284297 -37.005642 -0.36415109
13.310802 -37.014099 -0.34920889
14.657405 -37.094883 -0.35609338
14.713731 -37.084293 -0.3501527
15.224122 -37.129776 -0.35043299
15.256878 -37.123585 -0.34484726
15.320048 -37.142296 -0.34535703
15.374787 -37.136108 -0.35226741
15.403863 -37.146526 -0.37225437
16.7131 -37.2062 -0.37067437
16.767752 -37.221062 -0.37032148
16.810299 -37.226444 -0.35166815
16.854391 -37.23344 -0.33911729
16.89678 -37.255531 -0.33452407
12.411434 -36.927307 -0.36190525
12.719908 -36.943851 -0.33198157
12.767166 -36.929043 -0.35565019
12.813169 -36.945881 -0.3392241
12.867738 -36.948978 -0.35144517
12.92401 -36.940079 -0.35587364
12.970137 -36.952328 -0.34651265
13.195918 -36.941628 -0.34285247
13.201249 -36.942554 -0.36511439
13.286249 -36.962864 -0.36501983
13.306679 -36.957962 -0.34740421
13.381468 -36.976772 -0.35789815
13.397238 -36.973793 -0.33226639
14.688025 -37.049854 -0.37338036
14.714996 -37.045044 -0.35109562
15.241546 -37.097755 -0.33652332
15.259209 -37.082413 -0.33548856
15.299112 -37.078503 -0.34096301
15.381474 -37.091225 -0.3545337
15.407546 -37.08712 -0.36704782
16.683481 -37.163639 -0.37689525
16.712025 -37.175793 -0.37230197
16.772778 -37.181984 -0.36218897
16.819315 -37.180058 -0.3456555
16.856964 -37.173424 -0.34805751
13.231605 -36.926167 -0.35122186
13.283677 -36.926773 -0.35740101
13.315662 -36.930168 -0.34554315
14.680644 -36.994312 -0.36214831
14.711935 -37.00687 -0.34396929
15.381227 -37.026932 -0.34723637
15.436808 -37.038864 -0.37191814
16.684956 -37.11451 -0.37542212
16.724701 -37.122913 -0.37034762
16.770214 -37.121391 -0.35889497
16.813627 -37.120453 -0.34284633
16.852188 -37.129517 -0.33398229
16.904184 -37.156216 -0.34156027
15.189934 -36.975903 -0.34360215
15.225171 -36.970398 -0.33317304
15.25709 -36.972839 -0.33489645
15.33903 -36.985691 -0.34666014
15.379625 -36.997662 -0.35203576
15.420168 -36.987595 -0.37008238
16.672699 -37.069149 -0.37381455
16.725685 -37.069218 -0.37303281
16.770409 -37.072254 -0.3564904
16.818575 -37.082081 -0.34594882
16.867912 -37.090164 -0.35118547
16.916311 -37.088455 -0.33738577
14.642292 -36.900295 -0.34892657
14.676279 -36.878468 -0.36086383
15.380515 -36.936676 -0.34531745
15.413663 -36.9361 -0.3617315
16.642735 -37.0037 -0.37726584
16.676107 -37.024075 -0.37484151
16.726915 -37.019672 -0.36324364
16.775377 -37.029949 -0.35441077
16.824703 -37.030556 -0.3474485
16.869747 -37.02478 -0.34807923
16.909691 -37.021648 -0.33731604
14.683652 -36.84761 -0.35049483
16.681156 -36.979591 -0.37573102
16.73501 -36.970757 -0.36471692
16.77706 -36.974117 -0.35290101
16.828409 -36.969875 -0.35441649
16.87517 -36.979446 -0.35463929
16.911963 -36.987984 -0.33971757
14.648141 -36.804161 -0.36700085
14.681374 -36.81678 -0.33967718
15.204136 -36.812328 -0.33164731
15.289014 -36.822731 -0.34033561
15.333979 -36.830948 -0.358109
15.368076 -36.849926 -0.36033499
15.415286 -36.850304 -0.34693319
16.687576 -36.916859 -0.37464571
16.735538 -36.921616 -0.3591958
16.778069 -36.927998 -0.35692993
16.837914 -36.932159 -0.3582812
16.878428 -36.932579 -0.3521243
16.917454 -36.935303 -0.339304
14.638337 -36.746212 -0.35743737
14.673258 -36.725834 -0.33753392
15.195795 -36.789829 -0.3390584
15.223596 -36.78756 -0.33762267
15.2925 -36.787621 -0.35058343
15.344402 -36.781475 -0.35004583
15.381521 -36.789967 -0.36406222
16.688612 -36.868687 -0.37880218
16.733532 -36.87899 -0.36231169
16.788441 -36.876701 -0.36464614
16.834755 -36.87933 -0.35756305
16.88163 -36.881691 -0.34890565
16.924152 -36.889816 -0.33466691
14.650941 -36.697083 -0.3555502
14.672974 -36.705196 -0.34001258
15.250653 -36.730743 -0.3321251
15.347128 -36.737358 -0.3531512
15.376272 -36.752182 -0.36347044
16.64723 -36.8241 -0.3783108
16.691729 -36.825962 -0.36804968
16.747761 -36.832169 -0.35838678
16.784271 -36.836201 -0.3596881
16.827784 -36.830124 -0.35434788
16.888706 -36.837292 -0.34947357
16.939066 -36.837215 -0.34727857
16.96966 -36.820152 -0.35442296
17.22665 -36.86544 -0.3355661
14.508309 -36.631195 -0.37814742
14.545242 -36.630028 -0.35422894
14.581634 -36.646954 -0.35626891
14.641126 -36.649864 -0.3489489
15.163981 -36.650642 -0.33083734
15.264408 -36.664944 -0.33088249
15.299809 -36.672447 -0.34547269
15.32683 -36.679462 -0.35404608
15.393591 -36.67804 -0.36832047
16.906765 -36.774006 -0.37683296
16.951988 -36.781017 -0.35811612
16.978943 -36.790058 -0.35337156
14.610544 -36.612156 -0.35057801
14.6588 -36.574081 -0.35302874
14.682185 -36.571213 -0.33662057
15.148464 -36.647408 -0.33274266
15.192279 -36.647839 -0.33515292
15.300062 -36.632637 -0.3459073
15.357644 -36.634472 -0.36644623
15.389192 -36.638744 -0.37690693
16.849714 -36.736271 -0.37911946
16.905426 -36.736275 -0.36819386
16.948961 -36.732903 -0.35241407
16.976847 -36.742569 -0.35674375
14.65669 -36.550529 -0.35433629
14.679925 -36.553253 -0.33630815
15.270697 -36.562305 -0.33242834
15.298358 -36.57906 -0.34266496
15.349458 -36.594215 -0.35562071
15.387668 -36.602589 -0.37913722
16.701147 -36.654507 -0.36896145
16.743439 -36.660057 -0.35848489
16.802961 -36.664135 -0.3553029
16.865536 -36.661823 -0.36423776
16.906744 -36.667866 -0.38033691
16.954391 -36.684242 -0.35957813
16.978758 -36.693783 -0.35269731
14.493469 -36.478554 -0.38010854
14.53965 -36.491055 -0.37309399
14.64574 -36.486752 -0.34964368
15.119042 -36.504944 -0.36672804
15.163913 -36.507908 -0.34978521
15.188091 -36.511654 -0.34732679
15.252854 -36.519505 -0.35017717
15.306182 -36.525993 -0.34926519
15.342648 -36.524311 -0.3596437
16.665199 -36.6101 -0.38100281
16.694464 -36.605572 -0.36580357
16.749052 -36.618969 -0.3512432
16.808771 -36.638889 -0.35603225
16.841295 -36.64323 -0.35063717
16.894564 -36.627403 -0.35537151
16.945536 -36.624874 -0.3431395
16.998821 -36.642403 -0.35753629
17.026125 -36.646599 -0.36735415
14.625221 -36.436729 -0.36780068
14.649145 -36.429661 -0.34716353
15.168631 -36.48999 -0.34920275
15.193468 -36.486042 -0.34493834
15.258213 -36.503696 -0.35515651
15.309448 -36.477634 -0.35095152
15.358457 -36.477962 -0.37910467
16.973663 -36.582691 -0.35004109
16.978928 -36.59 -0.3614468
14.62114 -36.399982 -0.36393297
14.647754 -36.408661 -0.34281978
15.216721 -36.440102 -0.33813098
15.325912 -36.434055 -0.3621425
15.340846 -36.444321 -0.37023017
16.970238 -36.530823 -0.35820898
16.989119 -36.535843 -0.35424545
14.575477 -36.349598 -0.36268312
14.610117 -36.335094 -0.35279894
15.12486 -36.360947 -0.35041428
15.165402 -36.358303 -0.34045258
15.234643 -36.371666 -0.3313112
15.251026 -36.372852 -0.34796277
15.31478 -36.376698 -0.35834718
15.34746 -36.36797 -0.36591962
16.701822 -36.477921 -0.36092722
16.742323 -36.480663 -0.34820533
16.825087 -36.489307 -0.34566751
16.866594 -36.493561 -0.34352505
16.910776 -36.495335 -0.36012587
16.966261 -36.490143 -0.35366672
17.007549 -36.502327 -0.34177017
14.621554 -36.291351 -0.35221452
15.17442 -36.344879 -0.33392364
15.191951 -36.34343 -0.33502042
15.276843 -36.317825 -0.33361197
15.314121 -36.326698 -0.35946089
15.353317 -36.333538 -0.37231925
16.938044 -36.413338 -0.3798869
16.96771 -36.436817 -0.35703507
16.994017 -36.429348 -0.35114476
14.576878 -36.239864 -0.35802966
14.608574 -36.260956 -0.35566729
15.318643 -36.298016 -0.35092586
15.350095 -36.294243 -0.36568481
16.677549 -36.371967 -0.37761617
16.714685 -36.373405 -0.36859968
16.766329 -36.368286 -0.36694345
16.8262 -36.377998 -0.36635494
16.86783 -36.381321 -0.36412615
16.921263 -36.389751 -0.36406428
16.963499 -36.386799 -0.3515065
17.006443 -36.384163 -0.33813715
17.0539 -36.40733 -0.35150814
14.618632 -36.18829 -0.35812148
15.271369 -36.235355 -0.3527905
15.325057 -36.234711 -0.35175955
15.35806 -36.228474 -0.35775739
16.927832 -36.348888 -0.37766451
16.962906 -36.336792 -0.35749015
16.997299 -36.323383 -0.33373061
13.189601 -36.04303 -0.35798308
13.205191 -36.036617 -0.35192755
14.63117 -36.142738 -0.35607117
14.655088 -36.15115 -0.33965772
15.281487 -36.158333 -0.36005244
15.32775 -36.189381 -0.35419187
15.356928 -36.190319 -0.36600485
16.665405 -36.28632 -0.36806712
16.714882 -36.285637 -0.35839272
16.771235 -36.285713 -0.35573885
16.835011 -36.285919 -0.35380334
16.87813 -36.285488 -0.34617803
16.931171 -36.27177 -0.37675619
16.97069 -36.287945 -0.35482344
17.018299 -36.289761 -0.34515736
17.061384 -36.280186 -0.35227779
13.184903 -36.007175 -0.35372195
13.22052 -36.003456 -0.35010016
13.282532 -35.990013 -0.36770266
14.546458 -36.076866 -0.3620981
14.565405 -36.069077 -0.35816476
14.624178 -36.109905 -0.33911261
15.149207 -36.101059 -0.34157276
15.160063 -36.099831 -0.34218314
15.227207 -36.112312 -0.33831939
15.279575 -36.126148 -0.35509995
15.330493 -36.137501 -0.36908635
16.686687 -36.217712 -0.37974662
16.720297 -36.217373 -0.37345469
16.781334 -36.221558 -0.37357897
16.835926 -36.223129 -0.37123117
16.878611 -36.2253 -0.36987787
16.936619 -36.229645 -0.36073169
16.97344 -36.232059 -0.35408494
17.015486 -36.235867 -0.33617541
17.117939 -36.255951 -0.3506152
14.589369 -36.032631 -0.36564812
14.617732 -36.029476 -0.34617504
15.099577 -36.095036 -0.35824442
15.143567 -36.08287 -0.34333387
15.16676 -36.082424 -0.34323239
15.233238 -36.095509 -0.34790963
15.282305 -36.07473 -0.35555276
15.315894 -36.092228 -0.36457038
16.628559 -36.163845 -0.36838925
16.679049 -36.158089 -0.36354166
16.728962 -36.154446 -0.35830304
16.761051 -36.149353 -0.34830508
16.846024 -36.157852 -0.34996372
16.939177 -36.162888 -0.35684198
16.975157 -36.184593 -0.35616201
14.60119 -35.995087 -0.36262584
14.626519 -35.997383 -0.34568086
15.194926 -36.030289 -0.33702576
15.243945 -36.014603 -0.34640768
15.291633 -36.039658 -0.35387969
15.315495 -36.041927 -0.36943164
16.630064 -36.133656 -0.37603781
16.686607 -36.118114 -0.37150046
16.729626 -36.13623 -0.3594026
16.780247 -36.134506 -0.34573206
16.835571 -36.122089 -0.35038313
16.880058 -36.109638 -0.37204906
16.939663 -36.140701 -0.36286262
16.963032 -36.141621 -0.35015392
15.277372 -35.976429 -0.36174521
16.638996 -36.068886 -0.37005985
16.685455 -36.065559 -0.37391421
16.737896 -36.070328 -0.37063813
16.782066 -36.071171 -0.37013006
16.832817 -36.071808 -0.37489828
16.886681 -36.083527 -0.36299017
16.944887 -36.076443 -0.36444825
16.973419 -36.085625 -0.35528362
17.015936 -36.095493 -0.35288203
17.12878 -36.089039 -0.33579856
16.646482 -36.020966 -0.37877169
16.685766 -36.017864 -0.37392372
16.734537 -36.0201 -0.37102693
16.781988 -36.019211 -0.37026733
16.830278 -36.032806 -0.36746842
16.887419 -36.024197 -0.36606178
16.942129 -36.02544 -0.36000729
16.972336 -36.034813 -0.3486976
16.839256 -35.986076 -0.36990234
16.947676 -35.989769 -0.35680026
16.985397 -35.98394 -0.3480137
12.785629 -37.859913 -0.31683695
12.825844 -37.871754 -0.3027994
12.88563 -37.867279 -0.32539624
12.78993 -37.856472 -0.31803602
12.822788 -37.83289 -0.29736283
12.866216 -37.8302 -0.29973832
12.906904 -37.839191 -0.30416438
13.237851 -37.87513 -0.3131184
13.274401 -37.869728 -0.28765431
13.301884 -37.873447 -0.31239593
12.891094 -37.797977 -0.30648485
13.024608 -37.775532 -0.30330259
14.292825 -37.854706 -0.30961925
12.990459 -37.766415 -0.31283814
13.029753 -37.739265 -0.29994243
13.075511 -37.743931 -0.30764556
13.103603 -37.72641 -0.28050584
14.322297 -37.819019 -0.29439899
13.067266 -37.713219 -0.31011072
13.139813 -37.700191 -0.29487851
13.188264 -37.697205 -0.31240559
13.20494 -37.688721 -0.28673533
14.032967 -37.747105 -0.30514133
14.074286 -37.751713 -0.30438155
14.108071 -37.766781 -0.3047398
14.174301 -37.760426 -0.30877787
14.22153 -37.76466 -0.30012965
14.28356 -37.778961 -0.30488256
14.315349 -37.777016 -0.29843631
13.194453 -37.668957 -0.30959073
13.21191 -37.654694 -0.29633611
13.328115 -37.64801 -0.3103379
13.359184 -37.652294 -0.29450446
14.064303 -37.732765 -0.30185521
13.293082 -37.621422 -0.30756471
13.326488 -37.607101 -0.30139536
14.743542 -37.712185 -0.30506891
14.770997 -37.703159 -0.31773886
13.305547 -37.558804 -0.30955806
13.326719 -37.564083 -0.30216143
14.755794 -37.638439 -0.32709095
14.78495 -37.657902 -0.30243486
15.433732 -37.66964 -0.30937797
13.156846 -37.482841 -0.27989364
13.303255 -37.510696 -0.31035969
13.3348 -37.509678 -0.3009136
13.405858 -37.520756 -0.29986513
14.689804 -37.58522 -0.32051218
14.736345 -37.594765 -0.31030536
14.779427 -37.606705 -0.30287352
15.302219 -37.615658 -0.28615883
15.35117 -37.614071 -0.2815375
15.395372 -37.632366 -0.29864416
15.438544 -37.638573 -0.30060044
15.478553 -37.651443 -0.31517363
13.15895 -37.446365 -0.28759381
13.192847 -37.449398 -0.29552019
13.242882 -37.45689 -0.29508239
13.305355 -37.458828 -0.30474636
13.330824 -37.46611 -0.30663729
14.758145 -37.536724 -0.324278
14.775436 -37.543606 -0.31304979
15.255952 -37.605637 -0.31188673
15.300689 -37.593136 -0.29037502
15.326517 -37.595081 -0.29248118
15.388915 -37.599136 -0.3000811
15.452203 -37.585182 -0.31024218
15.467556 -37.589283 -0.31047261
13.155581 -37.401001 -0.28526306
13.190729 -37.40419 -0.29724747
13.242982 -37.405964 -0.30633491
13.291075 -37.40556 -0.31846169
13.327731 -37.423672 -0.30940735
14.747436 -37.498432 -0.31880948
14.771566 -37.514233 -0.31070945
15.309555 -37.541359 -0.28363645
15.346783 -37.540417 -0.28922731
15.389235 -37.543209 -0.31425831
15.449721 -37.557362 -0.32216445
15.481861 -37.563255 -0.322759
16.857136 -37.623978 -0.32549512
16.878817 -37.610294 -0.31470057
13.115538 -37.356548 -0.28499782
13.148602 -37.357689 -0.29384002
13.196576 -37.358208 -0.29867697
13.246168 -37.363979 -0.30553132
13.298368 -37.361431 -0.31320587
13.334605 -37.363365 -0.31559032
13.38272 -37.369274 -0.31505832
14.630272 -37.4217 -0.32466415
15.258077 -37.480568 -0.31758755
15.289864 -37.477547 -0.30990598
15.339466 -37.497688 -0.29531559
15.402197 -37.497593 -0.31708258
15.43901 -37.490273 -0.31024241
16.902294 -37.608799 -0.30361935
16.93697 -37.606689 -0.28803346
13.20953 -37.309555 -0.28484794
13.258022 -37.319126 -0.30455512
13.30758 -37.310764 -0.3035765
13.338955 -37.311676 -0.30840793
14.644889 -37.418522 -0.32129058
14.723886 -37.385715 -0.31620616
14.73396 -37.3922 -0.31050882
15.271038 -37.452049 -0.30727524
15.300618 -37.442635 -0.29607698
15.345456 -37.435192 -0.29359728
15.397752 -37.449921 -0.30125946
15.426954 -37.43383 -0.31964517
16.813438 -37.515652 -0.32220227
16.855881 -37.522606 -0.31117931
16.892183 -37.529125 -0.31150845
16.940002 -37.539242 -0.29502022
13.318812 -37.270706 -0.30420581
13.340318 -37.263348 -0.30255857
14.720882 -37.348583 -0.32236567
14.739985 -37.354069 -0.3098653
15.404679 -37.402763 -0.28929991
16.85886 -37.474014 -0.32533154
16.894758 -37.470692 -0.31352705
16.94519 -37.477398 -0.29135928
13.319328 -37.210476 -0.30732375
13.339555 -37.220165 -0.30158472
14.761846 -37.318962 -0.31399524
15.256501 -37.322544 -0.29937148
15.304157 -37.34346 -0.28855544
15.3405 -37.342613 -0.29549581
15.418177 -37.350189 -0.32818455
16.816998 -37.418697 -0.31974086
16.857836 -37.424797 -0.31443116
16.898996 -37.429897 -0.30693054
16.951588 -37.43578 -0.2937063
13.325566 -37.164597 -0.31135035
13.339503 -37.162254 -0.30223081
14.672946 -37.249935 -0.30228204
14.720876 -37.241455 -0.30830061
14.749696 -37.255466 -0.32931706
15.217596 -37.287304 -0.31606203
15.256595 -37.278484 -0.3034898
15.299967 -37.280636 -0.2916176
15.366197 -37.286232 -0.30279565
15.386782 -37.296288 -0.30782822
16.866432 -37.376537 -0.32230508
16.903776 -37.384338 -0.31227607
16.948208 -37.385216 -0.29250121
16.98839 -37.367329 -0.28093213
13.320004 -37.118351 -0.30429515
13.346426 -37.126026 -0.29946595
14.744199 -37.213062 -0.32605353
15.268774 -37.239872 -0.29011223
15.306686 -37.236286 -0.3071315
15.36002 -37.2449 -0.30515549
15.39308 -37.243992 -0.30611649
16.821054 -37.322884 -0.32501233
16.864368 -37.325893 -0.32038748
16.903873 -37.33342 -0.30844277
16.950302 -37.33427 -0.29493165
16.995087 -37.36002 -0.29172668
13.317334 -37.056828 -0.30475274
13.350071 -37.081707 -0.30528224
14.735319 -37.167721 -0.32696071
14.750825 -37.160572 -0.317738
15.277242 -37.192192 -0.32159784
15.30984 -37.189575 -0.3197014
16.815151 -37.258636 -0.32218203
16.860218 -37.278828 -0.32178965
16.906948 -37.286087 -0.31057429
16.952147 -37.286358 -0.29057494
16.991991 -37.295891 -0.28391039
18.125092 -37.336102 -0.29040453
18.149826 -37.351894 -0.29498371
12.278853 -36.928112 -0.30240074
12.316512 -36.949959 -0.30685574
12.356721 -36.959137 -0.30454704
12.727818 -36.962257 -0.30752644
13.317 -37.007366 -0.30535391
13.34789 -37.01194 -0.29736191
14.631374 -37.095268 -0.32126004
14.664193 -37.088291 -0.31250715
15.271151 -37.116013 -0.32255641
15.302375 -37.140896 -0.31773028
16.87063 -37.232899 -0.31799823
16.911833 -37.235065 -0.30747756
16.958855 -37.241276 -0.2932646
17.014606 -37.255013 -0.28563684
17.149336 -37.260628 -0.28527719
18.118664 -37.313805 -0.29357663
18.145739 -37.305275 -0.30288053
12.738793 -36.939632 -0.30014804
12.766493 -36.922134 -0.30590358
12.831871 -36.941998 -0.31444523
12.873494 -36.946259 -0.30765271
12.92139 -36.947025 -0.30490622
12.987934 -36.954334 -0.31602719
13.316997 -36.959225 -0.30567154
13.400707 -36.971901 -0.30518922
14.732509 -37.038879 -0.3227914
14.749057 -37.051559 -0.31153181
15.271249 -37.088036 -0.32340428
15.321259 -37.088299 -0.30287907
15.361233 -37.0924 -0.29869786
15.411804 -37.09071 -0.31895566
16.826044 -37.17746 -0.32098964
16.867636 -37.181534 -0.31548661
16.918932 -37.184563 -0.29865921
16.957588 -37.191219 -0.28428406
18.118179 -37.271458 -0.29909447
18.140427 -37.280239 -0.28748465
13.214636 -36.92643 -0.32107478
13.294272 -36.924755 -0.31653979
13.322445 -36.927635 -0.30188799
14.73662 -37.016792 -0.31775036
14.750236 -37.024914 -0.31718013
15.28198 -37.032581 -0.29513058
15.319589 -37.031933 -0.30253416
15.351199 -37.033524 -0.31998533
16.778772 -37.102905 -0.3285372
16.828007 -37.118988 -0.31986174
16.876129 -37.128609 -0.31000885
16.921156 -37.13784 -0.30150145
16.959753 -37.143631 -0.29921681
17.022184 -37.150124 -0.29196894
17.079782 -37.148762 -0.28356162
18.122923 -37.211529 -0.29694626
14.717549 -36.968605 -0.32054597
15.23866 -36.973801 -0.32397491
15.268853 -36.97226 -0.31401333
15.307617 -36.98822 -0.31261003
15.368579 -36.965664 -0.29522625
16.793518 -37.10051 -0.32065883
16.827579 -37.074947 -0.31772825
16.872959 -37.08173 -0.30625451
16.919807 -37.077919 -0.29616958
16.969162 -37.084377 -0.29578382
18.065258 -37.159344 -0.29165375
18.127539 -37.140614 -0.2998783
18.163237 -37.139969 -0.292252
14.649394 -36.895466 -0.31873363
14.659527 -36.89122 -0.2972452
15.24883 -36.941483 -0.31733817
15.266803 -36.938274 -0.3104893
15.331733 -36.932682 -0.30555788
15.37431 -36.942764 -0.31471524
16.791914 -37.02261 -0.32687181
16.833033 -37.028683 -0.31565884
16.876202 -37.02776 -0.30718586
16.922594 -37.028099 -0.29648477
16.966892 -37.032272 -0.29552829
18.089546 -37.105701 -0.29595649
18.114155 -37.096409 -0.29424334
14.69863 -36.835403 -0.32008481
14.710058 -36.859821 -0.32653525
15.238524 -36.872997 -0.30490983
15.278943 -36.903576 -0.29812863
15.325053 -36.904594 -0.29593042
16.796465 -36.971069 -0.32584256
16.82905 -36.976799 -0.31320912
16.875147 -36.980259 -0.29906085
16.929152 -36.987114 -0.30304152
16.973495 -36.986462 -0.29520074
17.036867 -37.007553 -0.28824779
17.060959 -36.970108 -0.29494071
18.085588 -37.04266 -0.28976083
18.113194 -37.052879 -0.29674318
14.626501 -36.777477 -0.32276919
14.676519 -36.789467 -0.32009196
14.714389 -36.820129 -0.29843515
15.202629 -36.812199 -0.3286368
15.243893 -36.840961 -0.30915275
15.273884 -36.847847 -0.31258044
15.392157 -36.857441 -0.32845622
16.800035 -36.924183 -0.32512361
16.836174 -36.935406 -0.30735266
16.88026 -36.935249 -0.3040756
16.93458 -36.933338 -0.31114218
16.978102 -36.933338 -0.31139195
17.016394 -36.933552 -0.30299333
17.168489 -36.959267 -0.28809687
18.09523 -37.011063 -0.28338131
18.112652 -37.001049 -0.29696104
14.633423 -36.75198 -0.29676801
14.683134 -36.728237 -0.3156904
15.205583 -36.781345 -0.32325271
15.233142 -36.775711 -0.30793071
15.284758 -36.772236 -0.29809946
15.332436 -36.775192 -0.30590355
16.77846 -36.876221 -0.32406637
16.839821 -36.882023 -0.31756717
16.886345 -36.878174 -0.31036556
16.93642 -36.880413 -0.30761674
16.973097 -36.89119 -0.30354601
17.018339 -36.868671 -0.31273234
17.195869 -36.895718 -0.30448827
17.227577 -36.898495 -0.31028253
18.085293 -36.949512 -0.29050049
18.116402 -36.948696 -0.29463091
14.681924 -36.695087 -0.32162106
15.210573 -36.727146 -0.31170511
15.235031 -36.729351 -0.31044394
15.29088 -36.735649 -0.31118527
15.340899 -36.733685 -0.32721809
16.798456 -36.828617 -0.32549474
16.833725 -36.829468 -0.31015253
16.882313 -36.845234 -0.30679736
16.937702 -36.844479 -0.30013663
16.973356 -36.823158 -0.30807662
17.192619 -36.851368 -0.30800134
17.233536 -36.850986 -0.30441517
17.305651 -36.839119 -0.30635312
18.094793 -36.901478 -0.30183509
18.132828 -36.917877 -0.29571244
14.569677 -36.61644 -0.32826674
14.592749 -36.634911 -0.32065669
14.65136 -36.659828 -0.30237845
15.194148 -36.662262 -0.31606394
15.235467 -36.666977 -0.29976213
15.310192 -36.673836 -0.32165098
16.953995 -36.778446 -0.30528474
16.98291 -36.788967 -0.30498549
17.043077 -36.78973 -0.2880621
17.089951 -36.781841 -0.28688657
17.141289 -36.782818 -0.2920582
17.191326 -36.792503 -0.30643088
17.231977 -36.805138 -0.30105087
17.291096 -36.810841 -0.30487263
17.34041 -36.815983 -0.29059047
17.368948 -36.828762 -0.28711489
18.048565 -36.856186 -0.28638482
14.600703 -36.608128 -0.30322978
14.627298 -36.603245 -0.30048048
14.676572 -36.581627 -0.32274377
15.166774 -36.646576 -0.32652199
15.198896 -36.632957 -0.3151522
15.242372 -36.624393 -0.30431464
15.299465 -36.619785 -0.30679813
15.339227 -36.633896 -0.31231362
16.943415 -36.733147 -0.30445302
16.974569 -36.739208 -0.30503345
17.157221 -36.77108 -0.2899254
17.227043 -36.766975 -0.29490012
17.274872 -36.774792 -0.28205183
17.330492 -36.779545 -0.2913385
17.860689 -36.79277 -0.2902661
14.671508 -36.54623 -0.32823575
14.680408 -36.544449 -0.32998797
15.21233 -36.579769 -0.31075507
15.238626 -36.571175 -0.31097716
15.334085 -36.606136 -0.32211462
16.812958 -36.659264 -0.32683066
16.955244 -36.685875 -0.30140749
16.981802 -36.680904 -0.31426138
15.22111 -36.519138 -0.31741133
15.234206 -36.529476 -0.32851899
16.77212 -36.600636 -0.32860321
16.810926 -36.63781 -0.32527441
16.85564 -36.641109 -0.32029617
16.901266 -36.627392 -0.3142553
16.956734 -36.624783 -0.30620348
16.994843 -36.643276 -0.30589724
14.662827 -36.440052 -0.32768327
15.205117 -36.471069 -0.31594115
15.258709 -36.469021 -0.30260709
15.299532 -36.476631 -0.31083843
16.968121 -36.59108 -0.30896473
16.990509 -36.580894 -0.30137765
17.033072 -36.607155 -0.29005963
14.661522 -36.402084 -0.31263664
15.20518 -36.431053 -0.31728858
15.253098 -36.421207 -0.31913114
15.295874 -36.452007 -0.32886317
16.971245 -36.532551 -0.30694222
16.99362 -36.539474 -0.30417943
17.04944 -36.537346 -0.28894198
17.107859 -36.529224 -0.28628519
17.251183 -36.547653 -0.29681507
17.287912 -36.579628 -0.29086137
14.609091 -36.334728 -0.30856517
14.655543 -36.343296 -0.30802551
15.176671 -36.357399 -0.32395899
15.212959 -36.373707 -0.31095865
15.258741 -36.356628 -0.28656811
16.968601 -36.488922 -0.31165153
17.002827 -36.489479 -0.30205116
17.052031 -36.489017 -0.29800865
17.104231 -36.486385 -0.28583756
17.273611 -36.506729 -0.28779566
14.638814 -36.280861 -0.31884083
14.652756 -36.290627 -0.31080526
15.175697 -36.32518 -0.31993723
15.204845 -36.33152 -0.30698368
15.271736 -36.333656 -0.30903423
15.301736 -36.325359 -0.32068205
15.355939 -36.351662 -0.32620981
16.969658 -36.437759 -0.31083566
17.003304 -36.435387 -0.30614907
17.062078 -36.441906 -0.29844546
17.100939 -36.445549 -0.28659248
17.29755 -36.476158 -0.28873643
14.628592 -36.252628 -0.31669298
14.662915 -36.264252 -0.31303808
15.18368 -36.290081 -0.29294571
15.21279 -36.28746 -0.29800165
15.267125 -36.288483 -0.31173941
15.321548 -36.288776 -0.32634026
16.971972 -36.389866 -0.31203088
17.009497 -36.387852 -0.30066615
17.066639 -36.391972 -0.29385111
17.122292 -36.402874 -0.28679326
14.620811 -36.190571 -0.30404204
14.653822 -36.188393 -0.32864437
15.137248 -36.221455 -0.31770629
15.166202 -36.218826 -0.30899659
15.21745 -36.23402 -0.29574829
15.277596 -36.235409 -0.3165772
15.31496 -36.226818 -0.32113898
16.971346 -36.337452 -0.3142159
17.020424 -36.333004 -0.30927241
17.068184 -36.334076 -0.29794645
17.118641 -36.333241 -0.29661393
13.192216 -36.039921 -0.30683693
13.207517 -36.036942 -0.30430624
14.644588 -36.130741 -0.33020025
14.656329 -36.126225 -0.32025433
15.177857 -36.178391 -0.29484251
15.219504 -36.188572 -0.30267835
15.274837 -36.193005 -0.29518074
15.306533 -36.189514 -0.31036779
16.944576 -36.270927 -0.32632312
16.978794 -36.282692 -0.31364217
17.018536 -36.281292 -0.31524122
17.074146 -36.291267 -0.30649674
17.113203 -36.309361 -0.30148345
17.16144 -36.291706 -0.29087204
13.194989 -36.00423 -0.30711934
13.215827 -36.007694 -0.30179638
15.197719 -36.111683 -0.30955932
15.220107 -36.13966 -0.31684735
15.28915 -36.11636 -0.29494324
16.943907 -36.230576 -0.31640914
16.981409 -36.23402 -0.31582645
17.021322 -36.23687 -0.31551927
17.07008 -36.238415 -0.30754817
17.126612 -36.24371 -0.31177026
17.159986 -36.24472 -0.31408596
14.587871 -36.052193 -0.30847472
14.635263 -36.046185 -0.32265019
15.153857 -36.057117 -0.32954803
15.180501 -36.069126 -0.31497589
15.230168 -36.063671 -0.30570877
15.277037 -36.070831 -0.31286952
15.317266 -36.107296 -0.32206866
16.703463 -36.156288 -0.33074886
16.735165 -36.154274 -0.31853816
16.774664 -36.154358 -0.31306517
16.838037 -36.155804 -0.31564668
16.873812 -36.156178 -0.30385429
16.943977 -36.17952 -0.32253653
16.985998 -36.188896 -0.31657562
17.021273 -36.181122 -0.31453282
17.075499 -36.187954 -0.30403763
17.117424 -36.194851 -0.29385796
17.164967 -36.190338 -0.314542
14.628647 -36.003098 -0.32421368
15.155793 -36.025597 -0.32158864
15.179037 -36.026367 -0.31986424
15.228956 -36.025341 -0.32269201
15.289574 -36.049236 -0.32443452
16.790565 -36.143963 -0.32501838
16.830589 -36.137665 -0.31005502
16.871557 -36.127766 -0.30954033
16.931335 -36.134274 -0.31063172
16.97785 -36.143959 -0.31622741
17.030586 -36.138649 -0.30714437
17.077185 -36.143433 -0.30241033
17.119167 -36.148586 -0.29888141
17.166479 -36.154476 -0.30265036
15.225772 -35.993023 -0.32023838
16.886646 -36.101978 -0.32094517
16.987894 -36.087601 -0.31226474
17.030903 -36.090694 -0.30708897
17.076721 -36.095875 -0.3089889
17.134029 -36.097435 -0.30515862
17.168892 -36.10931 -0.3133446
16.950254 -36.030621 -0.31160837
16.985666 -36.035637 -0.31107295
17.032942 -36.034935 -0.30247501
17.081076 -36.047356 -0.3014847
17.122776 -36.035282 -0.29547536
17.165991 -36.052998 -0.31403041
16.963612 -35.982719 -0.3253822
16.987377 -35.988884 -0.31079546
17.039486 -35.985813 -0.3057574
17.085884 -35.98822 -0.29875419
17.142237 -35.999119 -0.29742679
17.170271 -36.00103 -0.28662577
12.831314 -37.868984 -0.24594027
12.862921 -37.86237 -0.25314215
12.826777 -37.844921 -0.25621763
12.879485 -37.8293 -0.25427121
12.906101 -37.837879 -0.25606391
12.950146 -37.863678 -0.23869008
13.281227 -37.871651 -0.26917088
12.882973 -37.802475 -0.24965335
12.895616 -37.811073 -0.26201713
13.065434 -37.758457 -0.2627452
14.327944 -37.824795 -0.25606471
13.145307 -37.694252 -0.26174271
13.171803 -37.703587 -0.25377449
13.22751 -37.697292 -0.25803012
13.288655 -37.6931 -0.23776671
14.03091 -37.743443 -0.25487781
14.081878 -37.754353 -0.25192493
14.102235 -37.76112 -0.25828147
14.192944 -37.749222 -0.25184622
14.24301 -37.75692 -0.26848477
14.277981 -37.759834 -0.25003114
14.340073 -37.779274 -0.25192785
13.199234 -37.666626 -0.27342939
13.223935 -37.661804 -0.25101036
13.311184 -37.641315 -0.25676376
13.363274 -37.647038 -0.25488794
14.065481 -37.73003 -0.25757557
14.276786 -37.74398 -0.23998883
13.294773 -37.623352 -0.25306576
13.327591 -37.606178 -0.25725248
14.775186 -37.697948 -0.26563469
14.806554 -37.697578 -0.2702142
13.310273 -37.546291 -0.24994472
13.32827 -37.562759 -0.25554362
13.359653 -37.584629 -0.2368995
14.80217 -37.64946 -0.27227715
15.345603 -37.683125 -0.26153567
15.37672 -37.711147 -0.24743228
15.424557 -37.713509 -0.25022048
13.123127 -37.486881 -0.25607768
13.307325 -37.511482 -0.25095171
13.336005 -37.508987 -0.25554633
13.403719 -37.518417 -0.25246486
14.752298 -37.580666 -0.27704039
15.353254 -37.631004 -0.26065892
15.375619 -37.653522 -0.26850626
13.137243 -37.44912 -0.25329491
13.190237 -37.465321 -0.26533639
13.317103 -37.447025 -0.25631538
13.333625 -37.466625 -0.2548027
15.311043 -37.579556 -0.27708268
15.332278 -37.582539 -0.27071396
15.388916 -37.583115 -0.26281461
15.422533 -37.584736 -0.25703987
13.107539 -37.399841 -0.25569704
13.143818 -37.400909 -0.25478968
13.208908 -37.387047 -0.25225493
13.222454 -37.386665 -0.27279177
13.318093 -37.419739 -0.23810701
13.333762 -37.420509 -0.25547469
15.313124 -37.548313 -0.27319324
15.333303 -37.547291 -0.26748154
15.404643 -37.563389 -0.26826051
15.42665 -37.562656 -0.26060766
13.110493 -37.353676 -0.25500959
13.13967 -37.360073 -0.25535622
13.179519 -37.363461 -0.27717257
15.342216 -37.481846 -0.26830086
15.385303 -37.475327 -0.26876727
15.420497 -37.501183 -0.2463903
13.150969 -37.312279 -0.2530489
13.198604 -37.303146 -0.27208039
13.256166 -37.290371 -0.27631697
13.311316 -37.294067 -0.25194222
13.346963 -37.308567 -0.25401655
15.309679 -37.413479 -0.27841133
15.356721 -37.444885 -0.26674321
15.388199 -37.451859 -0.26554641
16.902208 -37.51812 -0.27267969
16.947346 -37.5201 -0.25195602
16.99099 -37.533859 -0.26609427
17.021624 -37.534058 -0.25681746
13.321836 -37.272758 -0.251784
13.343547 -37.255959 -0.25483987
15.301271 -37.395309 -0.26489288
15.350005 -37.396564 -0.26839894
15.389156 -37.39109 -0.27427065
16.969736 -37.504826 -0.28012145
16.994953 -37.479065 -0.26858786
17.026178 -37.498901 -0.25502405
13.321076 -37.202541 -0.2623817
13.340567 -37.215935 -0.25327724
15.290689 -37.316124 -0.27629369
16.915649 -37.41785 -0.27133024
16.959917 -37.42963 -0.26140988
17.005911 -37.44157 -0.26225525
17.050209 -37.441097 -0.25602868
17.093908 -37.434116 -0.24801496
13.328385 -37.168797 -0.248834
13.340176 -37.163822 -0.25506312
14.681656 -37.244846 -0.27494413
15.279896 -37.258743 -0.27583787
15.299931 -37.269619 -0.27374974
15.349441 -37.278603 -0.25234666
16.958406 -37.37764 -0.27750641
16.998137 -37.391178 -0.26805091
17.057816 -37.388374 -0.25625688
17.099411 -37.396996 -0.25793305
17.135578 -37.399456 -0.24518768
13.320433 -37.114727 -0.25487083
13.348518 -37.126911 -0.25466841
15.272175 -37.222523 -0.27833307
15.315665 -37.248402 -0.26855856
15.37457 -37.256683 -0.27738681
16.924656 -37.317085 -0.27132547
16.965841 -37.330208 -0.26645991
17.000799 -37.335537 -0.26051775
17.062435 -37.344658 -0.2615734
17.101767 -37.352257 -0.2597847
17.139853 -37.357174 -0.25880146
13.323606 -37.055637 -0.25481132
13.344975 -37.079777 -0.25760785
16.96826 -37.290676 -0.27325574
17.007917 -37.291962 -0.26345509
17.065954 -37.295837 -0.25184906
17.111067 -37.290588 -0.25160277
17.163351 -37.296082 -0.24528611
18.127678 -37.334476 -0.27129269
18.172823 -37.351154 -0.26067135
12.280103 -36.939754 -0.25463286
12.316204 -36.947151 -0.25585562
12.35276 -36.956707 -0.25551429
12.722277 -36.958401 -0.25776768
13.317613 -37.016178 -0.25468177
13.351493 -37.009178 -0.25758338
16.922155 -37.250168 -0.2751675
16.974787 -37.235699 -0.26697472
17.005753 -37.236568 -0.25929078
17.060389 -37.238407 -0.25842425
17.098455 -37.24435 -0.25843966
17.164921 -37.242897 -0.25472701
18.125139 -37.316105 -0.26216051
18.160376 -37.327778 -0.24463382
18.190384 -37.299496 -0.25178653
12.741016 -36.925762 -0.2542693
12.761482 -36.917736 -0.25937176
12.866138 -36.943024 -0.27338582
12.923475 -36.938389 -0.25635728
12.954302 -36.946598 -0.25381938
13.317172 -36.96413 -0.25456902
13.394047 -36.96875 -0.23985672
13.400167 -36.969875 -0.26924714
15.293592 -37.077564 -0.27847633
15.297461 -37.077679 -0.27875775
15.362473 -37.079082 -0.27920729
16.929073 -37.181965 -0.27127939
16.974869 -37.183914 -0.26790524
17.012766 -37.184784 -0.25347567
17.056175 -37.189415 -0.25210178
17.11858 -37.187901 -0.25270572
18.120457 -37.262703 -0.26990929
18.163448 -37.263756 -0.26480764
13.324583 -36.923283 -0.25432578
16.921757 -37.131962 -0.27301779
16.972708 -37.133453 -0.26431653
17.011047 -37.13604 -0.25212798
17.072271 -37.143154 -0.25573295
17.108425 -37.149319 -0.25523314
18.066422 -37.182247 -0.27581978
18.123301 -37.201145 -0.26189393
18.163603 -37.21434 -0.25973323
16.883871 -37.086056 -0.27580374
16.929699 -37.086021 -0.27059674
16.975279 -37.085125 -0.2555961
17.031586 -37.083595 -0.24315004
17.068645 -37.082878 -0.23949566
18.068487 -37.177876 -0.26037586
18.128752 -37.160118 -0.25888327
18.177488 -37.156292 -0.24733685
15.310462 -36.940952 -0.27884835
15.36271 -36.953461 -0.27737191
16.92856 -37.036232 -0.27402717
16.967257 -37.038086 -0.26067927
17.018875 -37.041199 -0.24969731
17.070023 -37.046215 -0.24479719
17.120316 -37.044857 -0.23753516
18.089375 -37.091293 -0.25950038
18.11857 -37.101448 -0.26115173
18.171383 -37.109009 -0.25858739
16.895258 -36.983269 -0.2749714
16.92988 -36.983814 -0.26796615
16.975723 -36.981972 -0.25404623
17.026051 -36.992722 -0.25471854
17.075363 -37.00301 -0.25005656
17.128525 -37.007233 -0.24831197
17.153805 -36.986069 -0.24059534
18.091621 -37.042034 -0.25790238
18.128256 -37.057243 -0.26538864
18.172874 -37.057949 -0.25763255
16.897343 -36.941746 -0.27543068
16.933264 -36.934158 -0.25993732
16.980219 -36.946323 -0.25159159
17.036787 -36.943634 -0.2381743
17.070614 -36.949078 -0.2546618
17.128664 -36.940208 -0.25502867
17.178581 -36.941204 -0.24523315
18.096088 -37.00304 -0.25478372
18.136738 -37.00444 -0.26209807
18.157883 -37.02113 -0.25713077
14.620836 -36.751827 -0.27871841
15.258988 -36.760891 -0.27942851
15.279787 -36.775787 -0.27832249
16.894173 -36.88026 -0.27744502
16.931223 -36.877647 -0.25854248
16.978828 -36.880875 -0.26694718
17.177383 -36.904594 -0.25009799
17.241978 -36.892723 -0.2511467
18.093079 -36.954205 -0.26030049
18.119112 -36.944176 -0.23683798
18.171385 -36.959492 -0.24962965
16.904177 -36.830975 -0.27632409
16.944273 -36.83165 -0.26485416
16.978905 -36.834423 -0.25888684
17.014057 -36.836006 -0.24661258
17.194918 -36.855236 -0.25875255
17.22105 -36.859718 -0.25527576
17.268534 -36.832047 -0.23763977
18.051249 -36.882275 -0.2605387
18.089966 -36.908352 -0.25588998
18.135748 -36.905838 -0.26795238
16.946745 -36.77943 -0.260961
16.980572 -36.786133 -0.26575217
17.044706 -36.787727 -0.27391967
17.107573 -36.784122 -0.27772862
17.119478 -36.787804 -0.25955525
17.193022 -36.791679 -0.26995561
17.244646 -36.807953 -0.26172268
17.291338 -36.806885 -0.26043087
17.331757 -36.790543 -0.23944336
17.389782 -36.806232 -0.26647711
17.423878 -36.80479 -0.25797325
17.838919 -36.82761 -0.23174219
18.074022 -36.863438 -0.25230289
15.289663 -36.643627 -0.26644143
16.899855 -36.748699 -0.26012743
16.942947 -36.731377 -0.25977838
16.986399 -36.738018 -0.2602002
17.044897 -36.744816 -0.25086522
17.103079 -36.746414 -0.25993973
17.148878 -36.753563 -0.26659375
17.195652 -36.754482 -0.2592566
17.24383 -36.747177 -0.2614454
17.294037 -36.749691 -0.25531822
17.34606 -36.756485 -0.24928677
17.383358 -36.767296 -0.24295197
17.427771 -36.788296 -0.23229289
17.846025 -36.786568 -0.26117694
17.888258 -36.781296 -0.25006548
15.238369 -36.566277 -0.27397296
16.95134 -36.690735 -0.25778505
16.989742 -36.680401 -0.24537911
17.111006 -36.71907 -0.23360577
17.186073 -36.712471 -0.24221255
17.246437 -36.708023 -0.2422481
17.298702 -36.715931 -0.24212594
17.327488 -36.70755 -0.24047183
17.848644 -36.753906 -0.24990347
17.880419 -36.735611 -0.23626636
16.921345 -36.655918 -0.24361405
16.956133 -36.650429 -0.25780341
16.999081 -36.631287 -0.26025704
17.051231 -36.625496 -0.25319725
17.08127 -36.629822 -0.24905802
17.206999 -36.656296 -0.23758225
17.312717 -36.655087 -0.24397345
17.338804 -36.648693 -0.23288085
15.278504 -36.48468 -0.28068554
16.973169 -36.594509 -0.27167147
17.00823 -36.595409 -0.26351023
17.039673 -36.588375 -0.255546
17.204086 -36.610657 -0.24060503
17.263933 -36.601173 -0.24918994
17.292761 -36.597561 -0.23893961
16.973101 -36.54496 -0.26485947
17.003408 -36.543167 -0.26451811
17.056128 -36.541756 -0.25931373
17.105822 -36.550896 -0.24738771
17.211538 -36.534027 -0.24937977
17.263498 -36.545738 -0.26400498
17.302004 -36.555176 -0.25241148
14.626064 -36.327396 -0.2709848
16.974224 -36.484047 -0.26834071
17.009007 -36.495968 -0.25903454
17.057726 -36.506237 -0.25735548
17.11824 -36.496479 -0.27123058
17.140453 -36.497879 -0.26229736
17.257362 -36.502342 -0.25535083
17.295017 -36.520512 -0.24126796
15.18874 -36.333492 -0.27128875
15.214989 -36.332512 -0.26625589
15.267344 -36.333668 -0.26578635
15.29619 -36.335217 -0.26800853
16.973839 -36.432095 -0.27210885
17.039347 -36.442627 -0.27673993
17.106813 -36.453621 -0.26960295
17.263163 -36.463722 -0.2615892
17.290905 -36.473518 -0.24383038
15.200629 -36.277725 -0.27818367
16.971704 -36.381275 -0.272836
17.024965 -36.38641 -0.26542109
17.054077 -36.381802 -0.26391321
17.114918 -36.396423 -0.26672164
15.202423 -36.238934 -0.27913544
15.266531 -36.214619 -0.26574802
15.332999 -36.224548 -0.2746779
17.101789 -36.36581 -0.27760708
13.189195 -36.036045 -0.25439191
13.209942 -36.042892 -0.26043442
15.193503 -36.166035 -0.27225125
15.235058 -36.190659 -0.26984391
15.284334 -36.19915 -0.2743544
16.984303 -36.273216 -0.27174509
17.024855 -36.272495 -0.26567224
17.08246 -36.274643 -0.26268539
17.099037 -36.314793 -0.27968085
13.194932 -35.995346 -0.25547469
13.214463 -36.007988 -0.25551522
15.266156 -36.123764 -0.27303061
16.993282 -36.231426 -0.2509754
17.022673 -36.237667 -0.27590257
18.82827 -36.337765 -0.24447332
13.288364 -35.982468 -0.25002596
16.998369 -36.207474 -0.27986005
17.02783 -36.205578 -0.26557475
17.091675 -36.203232 -0.25689864
18.828732 -36.305779 -0.2514675
16.984081 -36.155544 -0.28093398
17.020859 -36.15546 -0.2743831
17.109213 -36.143867 -0.27813357
17.163153 -36.133938 -0.27451873
18.834805 -36.252037 -0.24627359
17.007559 -36.096973 -0.27685025
17.032026 -36.090843 -0.27183408
17.085506 -36.086693 -0.26420864
17.125019 -36.085518 -0.24302526
18.825983 -36.191204 -0.24984924
18.85836 -36.210346 -0.24470367
16.996111 -36.036747 -0.27778494
17.030075 -36.037712 -0.26606593
17.078926 -36.042339 -0.25451991
17.118139 -36.029629 -0.2617242
18.827602 -36.146366 -0.24970183
17.025415 -35.996086 -0.27474263
17.081512 -35.993637 -0.26420721
17.135227 -36.001438 -0.26976293
17.173454 -35.993626 -0.2681554
18.83316 -36.099148 -0.25557327
18.884308 -36.101917 -0.2350162
18.799622 -36.023533 -0.2341935
18.824926 -36.05077 -0.2557736
18.827869 -36.008415 -0.24960758
12.783941 -37.877453 -0.22113347
12.817979 -37.86512 -0.20510641
12.861325 -37.866974 -0.20247816
12.909678 -37.893311 -0.20072079
13.123599 -37.888424 -0.19581127
13.995528 -37.977222 -0.19536294
12.815856 -37.850098 -0.21004036
12.873043 -37.829361 -0.20798703
12.91252 -37.830498 -0.197923
12.962275 -37.860828 -0.21584807
12.884645 -37.806725 -0.20572658
12.899086 -37.793922 -0.19694512
12.956875 -37.786716 -0.20704055
13.018561 -37.762981 -0.19676352
13.062518 -37.767925 -0.21712847
13.105283 -37.742825 -0.18278904
13.239367 -37.737427 -0.19284731
13.273391 -37.742554 -0.20911129
13.312297 -37.753811 -0.2001071
14.34219 -37.827507 -0.20262377
14.347713 -37.82473 -0.19234805
13.186267 -37.726627 -0.216921
13.242251 -37.70911 -0.20597155
13.28015 -37.701038 -0.19640841
13.317205 -37.717529 -0.19378345
13.997912 -37.735069 -0.20217836
14.036132 -37.740971 -0.20646611
14.085057 -37.753586 -0.20310336
14.109891 -37.753242 -0.20520301
14.181624 -37.753296 -0.19983914
14.231282 -37.755245 -0.18371959
14.273536 -37.756283 -0.20540875
14.340183 -37.777893 -0.20274572
14.348878 -37.799896 -0.22057071
13.239456 -37.655048 -0.217622
13.277437 -37.662933 -0.20427379
13.318901 -37.668507 -0.1988183
13.359251 -37.651489 -0.20325224
14.072669 -37.726173 -0.20513657
