# .PCD v0.7 - Point Cloud Data file format
VERSION 0.7
FIELDS x y z
SIZE 4 4 4
TYPE F F F
COUNT 1 1 1
WIDTH 1464
HEIGHT 1
VIEWPOINT 0 0 0 1 0 0 0
POINTS 1464
DATA ascii
14.728311 -27.892534 -0.46531597
14.799944 -27.876139 -0.48162761
20.870695 -28.257803 -0.46082008
20.924761 -28.254272 -0.47510237
22.014723 -28.322565 -0.44903788
13.149387 -27.735001 -0.4634724
13.182926 -27.739544 -0.45550236
13.22064 -27.719595 -0.44282076
13.936194 -27.774784 -0.46543434
14.005692 -27.788982 -0.46302927
14.039761 -27.788532 -0.47550434
14.072602 -27.797823 -0.43895772
14.596992 -27.833023 -0.44752941
14.627147 -27.825888 -0.4508191
14.69885 -27.842163 -0.4546082
14.730551 -27.834768 -0.46803376
14.766281 -27.842686 -0.48265791
20.875971 -28.20492 -0.46801704
20.914951 -28.221245 -0.4591186
21.970503 -28.268738 -0.43898746
22.05287 -28.298119 -0.4444654
13.155912 -27.683865 -0.46989393
13.178442 -27.689857 -0.44983646
14.04996 -27.73711 -0.45909032
14.072771 -27.726107 -0.44305491
14.699061 -27.757637 -0.45934525
14.733795 -27.779587 -0.46692246
14.775981 -27.761847 -0.48062816
20.880049 -28.165642 -0.46663019
22.010342 -28.225641 -0.44905889
12.450337 -27.596325 -0.46202183
12.804538 -27.602507 -0.45409369
12.836821 -27.611504 -0.46907955
13.157581 -27.636925 -0.46230125
13.179448 -27.638771 -0.44591266
13.996301 -27.666313 -0.47922552
14.047854 -27.698505 -0.46011844
14.073479 -27.708088 -0.43979427
14.5557 -27.713367 -0.44427711
14.58825 -27.715277 -0.44136441
14.664185 -27.731033 -0.44144362
14.687928 -27.734903 -0.46726432
14.755755 -27.732704 -0.47349277
14.773902 -27.733805 -0.47425467
12.797563 -27.567448 -0.45948595
13.158902 -27.587093 -0.46489465
13.186928 -27.583679 -0.4506292
13.941 -27.649307 -0.47561231
13.980385 -27.644135 -0.45003077
14.049622 -27.627542 -0.46731114
14.598675 -27.66173 -0.44082731
14.64355 -27.66543 -0.44624427
14.700687 -27.686749 -0.45565921
14.748507 -27.693474 -0.46413231
14.774906 -27.689758 -0.48159042
13.108789 -27.53734 -0.44395554
13.167896 -27.555004 -0.47505862
13.179868 -27.55632 -0.44885629
14.055164 -27.595882 -0.46452954
14.075621 -27.601871 -0.45230028
14.56549 -27.606415 -0.45883065
14.596126 -27.60813 -0.45325553
14.644748 -27.61841 -0.46019384
14.689844 -27.627888 -0.44976506
14.741838 -27.63669 -0.47730953
13.983695 -27.518581 -0.4744423
14.053164 -27.538855 -0.45168561
14.519845 -27.592674 -0.48100218
14.559865 -27.586821 -0.46649817
14.590132 -27.576551 -0.45163918
14.657001 -27.567717 -0.45369127
14.708391 -27.569347 -0.46829921
14.782892 -27.596073 -0.47515091
13.994729 -27.495815 -0.45694098
14.051323 -27.476776 -0.46418163
14.575295 -27.542728 -0.44867462
14.603059 -27.539396 -0.44931114
14.714426 -27.523159 -0.46748173
14.749449 -27.525724 -0.4684234
14.058492 -27.445662 -0.45623356
14.593869 -27.450882 -0.44144994
14.670084 -27.471563 -0.4499009
14.708972 -27.474022 -0.46019509
14.760445 -27.481073 -0.47271651
14.79269 -27.47587 -0.48587844
13.97805 -27.36223 -0.47732276
14.009746 -27.392845 -0.48633301
14.057197 -27.398399 -0.4502677
14.529613 -27.439596 -0.45531356
14.563999 -27.437033 -0.44466788
14.60186 -27.435354 -0.44136605
14.676028 -27.436594 -0.45610559
14.724749 -27.417925 -0.46286297
14.75389 -27.425575 -0.46807975
14.789684 -27.443848 -0.48593172
23.34885 -27.970421 -0.4603264
14.018601 -27.345259 -0.46886024
14.05496 -27.326601 -0.45559561
14.720083 -27.386114 -0.45910209
14.761834 -27.400166 -0.47892484
23.312061 -27.929605 -0.47047675
23.347475 -27.916111 -0.47224221
14.03151 -27.297174 -0.4726449
14.058833 -27.301199 -0.44787714
14.097496 -27.30896 -0.43869808
14.530983 -27.302332 -0.45039701
14.575893 -27.305002 -0.4436717
14.59527 -27.302828 -0.4385075
14.669302 -27.329767 -0.45738974
14.715192 -27.335196 -0.4618715
14.761149 -27.33613 -0.4746713
23.322683 -27.843277 -0.46865901
23.34255 -27.862177 -0.46656615
23.392588 -27.880144 -0.4524847
13.907979 -27.224455 -0.4725565
13.968143 -27.233608 -0.45937592
14.011695 -27.240891 -0.45480335
14.068962 -27.244072 -0.46256241
14.572273 -27.29266 -0.43796197
14.609103 -27.251003 -0.4408282
14.666892 -27.25555 -0.44805294
14.725639 -27.282932 -0.45637447
14.755374 -27.286505 -0.47432676
23.318527 -27.809374 -0.45885071
23.340975 -27.812376 -0.46211463
14.07285 -27.186405 -0.46434766
14.580295 -27.203699 -0.45375732
14.637182 -27.217297 -0.44275841
14.664679 -27.211557 -0.46781257
14.71083 -27.219393 -0.46607509
14.760083 -27.235443 -0.48087734
20.792749 -27.580957 -0.48084879
23.318447 -27.76166 -0.45990601
23.3403 -27.754875 -0.46282089
20.814285 -27.54862 -0.47045621
23.26936 -27.702 -0.47192082
23.316807 -27.711325 -0.46554622
20.734121 -27.492868 -0.45831352
20.760628 -27.514914 -0.47011545
20.818102 -27.500792 -0.46161565
23.265606 -27.652094 -0.46683851
23.321388 -27.663568 -0.4522438
20.758593 -27.455976 -0.45817941
20.80938 -27.469791 -0.47277859
21.90453 -27.520086 -0.44859058
23.268763 -27.582413 -0.48042756
23.313931 -27.609713 -0.46425331
21.886196 -27.485346 -0.44988692
21.946321 -27.457563 -0.45430034
23.313286 -27.551952 -0.46688873
21.894232 -27.412849 -0.45282033
21.905005 -27.414232 -0.44097564
23.286978 -27.508253 -0.46046939
23.310249 -27.509367 -0.45282963
21.718136 -27.341103 -0.44321698
23.286505 -27.440489 -0.45713583
23.310297 -27.444952 -0.44934228
21.681736 -27.280817 -0.44467884
21.725372 -27.254265 -0.46987885
21.695005 -27.209141 -0.44371203
21.727757 -27.215569 -0.45457318
13.225955 -29.690451 -0.40763786
14.041201 -29.736168 -0.41589978
14.06061 -29.734495 -0.42287427
14.665679 -29.779446 -0.41829073
13.225773 -29.639532 -0.40923515
13.257906 -29.624872 -0.41240591
14.641246 -29.717819 -0.42741427
14.668511 -29.71759 -0.4264254
14.715372 -29.728449 -0.41626522
13.223373 -29.595726 -0.40889716
14.12108 -29.645834 -0.43039328
14.667045 -29.66855 -0.42642578
14.71065 -29.700348 -0.42614958
13.232851 -29.546808 -0.4096404
13.272988 -29.567726 -0.40775964
14.033811 -29.571707 -0.42310053
14.057636 -29.569368 -0.42791131
14.643702 -29.626749 -0.4303481
14.680785 -29.630695 -0.42221618
14.721309 -29.627899 -0.41650477
14.75412 -29.642475 -0.42764348
13.234595 -29.494541 -0.40844035
14.053069 -29.568169 -0.41226462
14.059283 -29.567709 -0.41485032
14.107313 -29.525995 -0.42746523
14.645 -29.592426 -0.41466004
14.676772 -29.60083 -0.40253925
14.724027 -29.6042 -0.400002
13.236644 -29.440191 -0.41130185
14.109133 -29.503008 -0.42980576
14.645068 -29.545658 -0.4146879
14.678076 -29.540659 -0.41742811
14.729321 -29.510439 -0.43225101
13.235386 -29.397432 -0.40851498
14.608924 -29.460827 -0.4332369
14.631564 -29.476316 -0.42480966
14.676604 -29.486172 -0.41530836
14.730487 -29.477213 -0.41268638
13.011406 -29.317219 -0.3956261
13.040156 -29.327202 -0.40424919
13.086231 -29.326052 -0.41709429
13.137215 -29.325827 -0.41603607
13.188878 -29.323618 -0.39525464
13.241194 -29.345469 -0.40855658
13.292686 -29.369459 -0.4078528
14.034463 -29.380667 -0.42513338
14.636019 -29.436769 -0.42053738
14.686341 -29.423037 -0.41349983
14.733905 -29.434515 -0.41467395
14.767313 -29.42791 -0.42753309
13.013302 -29.275908 -0.39423859
13.046723 -29.280041 -0.40763026
13.08458 -29.293308 -0.42038202
13.146112 -29.2973 -0.42650729
13.198257 -29.294176 -0.42579457
13.234232 -29.301838 -0.42159611
14.122047 -29.33477 -0.42994472
14.653085 -29.368336 -0.42734653
14.689224 -29.369207 -0.42991859
13.012177 -29.227104 -0.39843243
13.048299 -29.232983 -0.40634972
13.091619 -29.242346 -0.41862705
13.148442 -29.238352 -0.42638129
13.197636 -29.228905 -0.42397189
13.239604 -29.236914 -0.42700934
14.664448 -29.319344 -0.42200232
14.674171 -29.321836 -0.42912012
21.747688 -29.751287 -0.40381366
21.787344 -29.778925 -0.41181752
21.819645 -29.753014 -0.41608265
13.022619 -29.174925 -0.38995412
13.050294 -29.185915 -0.41234821
13.096867 -29.197996 -0.4164024
13.157343 -29.198587 -0.41057667
13.21319 -29.190018 -0.41012457
13.235355 -29.199434 -0.41818726
14.019817 -29.257168 -0.42402697
14.034405 -29.25663 -0.41852313
14.10386 -29.233536 -0.43396223
14.647689 -29.286776 -0.41713214
14.699648 -29.288883 -0.41042581
14.736856 -29.28583 -0.41762587
21.771482 -29.73 -0.41526109
13.223285 -29.12499 -0.42518976
13.235947 -29.142569 -0.40869382
14.10056 -29.210001 -0.43446782
14.648926 -29.236145 -0.42228964
14.689462 -29.242443 -0.42794433
19.241207 -29.510019 -0.3906461
19.271852 -29.511282 -0.39324957
21.784122 -29.685762 -0.39336365
13.225537 -29.089577 -0.41154158
13.236357 -29.102896 -0.40541878
13.288626 -29.076176 -0.40924838
14.040376 -29.137648 -0.42587239
14.122019 -29.17071 -0.43132505
14.619925 -29.161451 -0.43209133
14.647955 -29.188137 -0.42475858
14.713506 -29.171021 -0.41209322
14.731153 -29.17861 -0.42338356
19.279228 -29.479156 -0.39155224
13.227201 -29.03558 -0.41534513
13.24109 -29.048195 -0.40832978
14.022406 -29.098169 -0.43116045
14.038679 -29.096653 -0.43203238
14.628512 -29.127743 -0.42687619
14.656395 -29.138161 -0.41614991
14.702455 -29.147047 -0.41189775
14.749405 -29.14959 -0.42720994
19.261316 -29.412018 -0.39286792
9.2627029 -28.757334 -0.39994287
13.161215 -28.967373 -0.39152169
13.225608 -28.992754 -0.40717426
13.251683 -28.987963 -0.40746468
13.29472 -28.971689 -0.42271131
14.12786 -29.045332 -0.42519033
14.659324 -29.086567 -0.42671224
14.689258 -29.093674 -0.42737147
9.2333689 -28.6985 -0.40809232
9.269351 -28.699009 -0.40682462
12.965859 -28.919432 -0.40100768
13.030709 -28.91259 -0.4050889
13.062098 -28.929895 -0.4025889
13.108779 -28.937725 -0.40656739
13.172482 -28.961391 -0.41011682
13.198311 -28.951557 -0.40268636
13.257534 -28.965275 -0.39180762
13.316145 -28.962427 -0.39683008
13.367301 -28.945673 -0.40499023
13.397718 -28.939363 -0.39583403
14.018106 -28.976585 -0.43426174
14.058222 -28.972233 -0.4293198
14.663376 -29.029642 -0.41780666
14.71263 -29.020817 -0.40677965
14.745089 -29.032434 -0.42484057
9.2402391 -28.625191 -0.41478324
9.2632809 -28.651709 -0.40459293
9.3016958 -28.65069 -0.40353212
12.959991 -28.871565 -0.40380901
12.999414 -28.895832 -0.38902724
13.379743 -28.918177 -0.40729836
13.424899 -28.907852 -0.40844283
13.457266 -28.89868 -0.40800405
14.634297 -28.981274 -0.42844599
14.658772 -28.981936 -0.42197105
14.714861 -29.000038 -0.41647357
14.742525 -29.003599 -0.41566783
20.526985 -29.360485 -0.43649447
21.634317 -29.41271 -0.40180612
9.2534723 -28.595652 -0.40781444
13.126447 -28.837406 -0.39716053
13.150658 -28.833527 -0.41057351
13.38352 -28.835144 -0.40820751
13.429981 -28.848181 -0.41081086
13.459482 -28.84893 -0.41031173
14.080658 -28.881481 -0.42530936
14.10432 -28.898491 -0.43320698
14.624493 -28.909559 -0.43225634
14.657019 -28.922178 -0.42307186
14.697751 -28.911655 -0.39237517
13.092211 -28.766981 -0.39862648
13.123216 -28.775251 -0.40790826
13.172327 -28.768047 -0.40455949
13.232041 -28.773674 -0.39337549
13.252511 -28.808891 -0.39323419
13.379603 -28.800034 -0.40621701
13.414287 -28.810305 -0.40784192
14.631763 -28.8806 -0.42634791
14.6763 -28.879498 -0.40981206
14.717562 -28.880825 -0.41691551
18.496271 -29.093506 -0.43508479
13.084585 -28.732128 -0.40959722
13.119802 -28.732777 -0.41359487
13.178728 -28.739237 -0.42252004
13.226927 -28.745396 -0.40444621
13.279918 -28.744818 -0.39924943
13.305892 -28.728331 -0.38835943
13.389828 -28.756775 -0.40341821
13.416643 -28.756798 -0.40417144
13.46005 -28.734343 -0.39738867
14.636667 -28.835375 -0.42580709
14.660693 -28.830923 -0.41781452
14.737481 -28.813101 -0.41597071
18.321562 -29.064608 -0.43432671
18.433868 -29.053493 -0.42952332
18.499426 -29.061024 -0.42670146
13.092004 -28.688095 -0.41196349
13.123886 -28.686293 -0.41350362
13.17861 -28.680445 -0.41798845
13.228637 -28.693251 -0.40751374
13.268694 -28.690586 -0.39839029
13.352571 -28.68961 -0.38564366
13.38846 -28.697569 -0.40845418
13.420515 -28.703705 -0.40071124
13.470693 -28.714411 -0.39348304
14.629771 -28.770226 -0.42485791
14.679406 -28.759199 -0.41997439
14.708403 -28.76622 -0.42838237
18.419313 -29.029375 -0.42440444
18.468592 -29.000336 -0.43480635
13.104549 -28.649782 -0.42371789
13.132136 -28.638521 -0.40746316
13.172588 -28.637583 -0.42372885
13.230419 -28.641981 -0.41712093
13.287377 -28.65271 -0.39742073
13.329912 -28.655535 -0.39307037
13.402162 -28.655756 -0.40855235
13.432837 -28.654808 -0.40328971
13.48877 -28.657982 -0.41105947
13.52235 -28.653349 -0.40786162
13.584548 -28.63904 -0.39303911
14.019291 -28.701376 -0.43079454
14.603369 -28.742041 -0.42471144
14.622671 -28.73105 -0.42713949
14.684292 -28.738577 -0.41725478
14.714697 -28.742966 -0.41820592
18.492903 -28.948282 -0.43070367
18.516493 -28.98461 -0.43446979
13.178445 -28.578178 -0.38566971
13.45618 -28.585651 -0.40800494
13.490314 -28.602695 -0.40955633
13.527018 -28.613876 -0.40745342
14.605353 -28.653685 -0.43524063
14.626816 -28.666697 -0.42588422
14.677464 -28.663702 -0.42146835
14.717902 -28.666203 -0.42684031
18.50186 -28.935499 -0.42687497
19.233179 -28.967203 -0.3931644
19.281731 -28.976479 -0.39736211
20.553173 -29.034079 -0.43165481
13.302171 -28.525173 -0.407781
13.328568 -28.539986 -0.40974471
13.38666 -28.550999 -0.40969586
13.449195 -28.564363 -0.4083595
13.491625 -28.577131 -0.41126901
13.52086 -28.572102 -0.41244557
14.027399 -28.582678 -0.42866996
14.607074 -28.619251 -0.43317819
14.63724 -28.620033 -0.42671651
14.688098 -28.621847 -0.42008278
19.278646 -28.909405 -0.4020586
12.691544 -28.450293 -0.41113997
12.76709 -28.463217 -0.39570123
12.786946 -28.451376 -0.41211852
13.055299 -28.455536 -0.40816665
13.111879 -28.465921 -0.39574888
13.128812 -28.46557 -0.41968593
13.196083 -28.472023 -0.41153726
13.24239 -28.493763 -0.40925467
13.279737 -28.509674 -0.40813494
13.454955 -28.526779 -0.40679088
14.60682 -28.586411 -0.43261451
14.633014 -28.567043 -0.42752287
19.299726 -28.856356 -0.39759186
12.704235 -28.410339 -0.41517854
12.745773 -28.41975 -0.40900934
12.810847 -28.394247 -0.41259307
13.065263 -28.454578 -0.3928521
13.16118 -28.460083 -0.40927973
13.208247 -28.437155 -0.41286013
13.265982 -28.465036 -0.41514471
13.271701 -28.466408 -0.387263
14.638315 -28.526293 -0.42877021
14.695874 -28.526381 -0.42119011
14.721981 -28.524801 -0.43187189
12.736432 -28.382986 -0.40602931
12.810649 -28.378393 -0.41086543
12.888638 -28.349377 -0.4102588
14.619531 -28.496098 -0.43469512
14.63114 -28.481766 -0.431243
20.544081 -28.839251 -0.3938919
12.846763 -28.31752 -0.40843561
12.897417 -28.332394 -0.40937316
12.970013 -28.307968 -0.41093239
12.99343 -28.313303 -0.41300222
14.669622 -28.415363 -0.418652
14.677044 -28.41573 -0.43215322
12.997976 -28.292994 -0.40965676
13.057608 -28.27858 -0.40986773
13.115634 -28.263535 -0.41241831
14.610605 -28.368263 -0.41691959
14.653694 -28.373102 -0.41512674
14.690306 -28.376375 -0.40835002
13.031808 -28.241661 -0.40819034
13.032782 -28.24193 -0.4132123
13.119277 -28.255518 -0.41230932
13.163724 -28.242573 -0.40815291
13.199419 -28.230198 -0.41196877
14.005292 -28.305363 -0.42671978
14.608358 -28.320635 -0.42602277
14.650288 -28.32387 -0.43115187
13.163742 -28.208876 -0.41153449
13.199926 -28.182745 -0.40957558
14.621793 -28.27079 -0.42643684
14.647233 -28.275331 -0.40813401
14.684568 -28.262623 -0.40982923
22.010801 -28.72257 -0.40730768
22.028912 -28.715189 -0.4037624
13.200621 -28.140059 -0.41014674
13.25132 -28.117863 -0.41551203
14.05676 -28.214682 -0.43291342
14.613421 -28.23027 -0.4255074
14.664596 -28.230854 -0.41364202
14.695624 -28.2342 -0.40905824
21.971275 -28.655951 -0.43194118
22.011492 -28.665415 -0.41196918
22.045031 -28.689396 -0.40192404
22.075291 -28.685207 -0.40447274
13.038037 -28.078747 -0.3924849
13.058642 -28.074898 -0.40370241
13.106012 -28.063015 -0.4059819
13.185899 -28.111086 -0.41408506
13.204651 -28.090374 -0.41047567
13.253511 -28.116663 -0.38780862
14.084099 -28.125319 -0.43021655
14.619419 -28.182894 -0.42449304
14.656883 -28.175388 -0.42092431
14.712135 -28.16354 -0.4278858
21.976358 -28.609617 -0.40402418
22.004395 -28.622494 -0.41881326
22.052732 -28.636272 -0.40117851
12.984772 -28.004494 -0.39788243
13.017573 -28.025675 -0.40840393
13.064914 -28.018013 -0.40831861
13.126966 -28.026379 -0.40954074
13.189886 -28.037882 -0.41067639
13.202065 -28.042597 -0.41007969
14.626044 -28.117346 -0.41991028
14.665935 -28.114264 -0.42013916
14.706553 -28.11685 -0.42175037
21.827728 -28.546501 -0.39337039
21.847584 -28.554173 -0.39727744
22.00835 -28.590322 -0.39885417
22.040033 -28.56761 -0.40972885
22.110369 -28.571032 -0.39121532
12.988717 -27.97497 -0.40066385
13.018193 -27.974024 -0.41418493
13.072864 -27.989347 -0.41203588
13.125164 -27.980864 -0.41884875
13.178535 -27.993773 -0.41256657
13.21454 -27.996475 -0.41424319
14.616236 -28.073963 -0.42921844
14.667647 -28.077557 -0.41735768
14.712917 -28.091164 -0.41123682
21.762777 -28.510427 -0.41417447
21.799141 -28.515327 -0.40630794
21.863176 -28.521933 -0.4055841
21.898306 -28.529173 -0.41222662
12.988236 -27.92922 -0.39992511
13.016506 -27.93195 -0.41694987
13.066749 -27.934868 -0.41398698
13.128952 -27.93148 -0.40960878
13.188031 -27.926535 -0.41884154
14.096562 -27.986181 -0.43133089
14.624459 -28.02243 -0.42763692
21.715975 -28.464912 -0.40855277
21.762394 -28.463448 -0.42576018
21.802105 -28.450134 -0.40508446
21.871517 -28.471939 -0.41640979
21.890312 -28.457783 -0.42474055
12.986609 -27.87196 -0.40579203
13.01708 -27.865219 -0.42042854
13.085756 -27.871727 -0.41584772
13.140524 -27.876841 -0.41128832
13.193758 -27.890402 -0.4096069
13.232909 -27.87812 -0.40742686
14.630111 -27.979219 -0.42160252
14.677953 -27.978882 -0.41332608
14.710324 -27.992384 -0.4218547
21.764814 -28.42506 -0.41262385
21.876205 -28.435102 -0.40755686
13.198305 -27.839849 -0.4118889
13.21799 -27.85713 -0.40000701
14.026791 -27.909567 -0.42384833
14.617435 -27.927471 -0.43182129
14.659129 -27.925936 -0.43048558
20.85874 -28.334427 -0.43436813
21.782169 -28.359934 -0.40193313
21.812332 -28.377687 -0.39991221
13.192264 -27.783155 -0.4101696
14.091315 -27.841961 -0.4161942
14.629762 -27.881023 -0.42940271
14.685338 -27.868341 -0.4081496
14.715547 -27.870277 -0.4269011
20.90885 -28.253736 -0.42573813
21.772278 -28.334454 -0.40654805
21.808289 -28.329336 -0.39445013
22.044027 -28.318922 -0.43692109
22.075428 -28.317564 -0.40411484
13.187595 -27.740837 -0.41002321
13.245726 -27.718048 -0.40549478
14.609069 -27.817841 -0.42047819
14.628325 -27.830427 -0.41466096
14.684659 -27.838758 -0.40522194
14.719872 -27.844265 -0.3981356
20.886795 -28.207893 -0.42485607
22.020788 -28.269079 -0.41994888
22.066584 -28.274483 -0.39528361
22.10014 -28.292824 -0.39902329
13.189865 -27.689344 -0.409989
14.065693 -27.730042 -0.43289104
14.080776 -27.734901 -0.42315495
14.606237 -27.782627 -0.41129261
14.637722 -27.781298 -0.40964937
14.676913 -27.789425 -0.42595208
14.718208 -27.792986 -0.43025795
21.966347 -28.237478 -0.41026869
22.023911 -28.229557 -0.41624373
22.057735 -28.234102 -0.41038719
12.43998 -27.581324 -0.43133733
12.794324 -27.600992 -0.40966809
13.166737 -27.623983 -0.41427204
13.183385 -27.64016 -0.40851918
14.061207 -27.68848 -0.43354562
14.080409 -27.707291 -0.42428058
14.566898 -27.707497 -0.43435052
14.595559 -27.711407 -0.42674965
14.636827 -27.721853 -0.41816196
14.689163 -27.724808 -0.416704
21.951061 -28.192339 -0.42908451
21.97953 -28.168987 -0.4321484
22.025341 -28.178368 -0.39823711
22.066734 -28.198629 -0.40329814
12.78339 -27.565224 -0.41165188
13.163145 -27.592827 -0.41730362
13.187325 -27.585617 -0.4103294
13.229777 -27.594339 -0.41429737
13.986597 -27.642248 -0.43597639
14.607303 -27.675858 -0.4192965
14.63987 -27.676842 -0.40977198
14.684397 -27.689386 -0.41340783
14.733804 -27.691916 -0.42579883
22.018274 -28.146439 -0.40069586
13.151917 -27.538519 -0.41305065
13.189603 -27.556349 -0.40798393
14.083779 -27.570728 -0.42651689
14.613015 -27.624504 -0.42081398
14.640814 -27.631285 -0.41269293
14.684506 -27.628428 -0.42660794
14.022647 -27.525974 -0.42920089
14.613021 -27.561991 -0.41388285
14.65517 -27.572384 -0.40343419
14.688392 -27.570538 -0.40730494
14.732164 -27.57621 -0.42355499
14.019385 -27.488768 -0.40640542
14.073969 -27.488377 -0.43246168
14.616134 -27.513741 -0.41867158
14.646412 -27.509224 -0.40986583
14.681936 -27.515406 -0.43341169
14.075309 -27.441395 -0.42982316
14.086507 -27.441761 -0.4287596
14.579 -27.452047 -0.43209624
14.611736 -27.458662 -0.42026678
14.651505 -27.47513 -0.41330391
14.699239 -27.472893 -0.42757991
14.077151 -27.41502 -0.42673647
14.582561 -27.42407 -0.43083587
14.606356 -27.421528 -0.41768715
14.660841 -27.424187 -0.40289673
14.702681 -27.428932 -0.40979055
23.347149 -27.96171 -0.42147219
14.018415 -27.353098 -0.41662836
14.066776 -27.323343 -0.42587358
14.615173 -27.379099 -0.41658926
14.648654 -27.378815 -0.42222312
14.722374 -27.404978 -0.43171704
23.314367 -27.926668 -0.41491663
23.34549 -27.91334 -0.41658837
23.392366 -27.890036 -0.42199981
14.070043 -27.295517 -0.42888609
14.57608 -27.307472 -0.43096629
14.621987 -27.32048 -0.41523665
14.66826 -27.311735 -0.42246723
14.703913 -27.317322 -0.43148926
23.322788 -27.858019 -0.42253295
23.340891 -27.862082 -0.4119868
23.390427 -27.876923 -0.39717111
14.018041 -27.23773 -0.42830992
14.583829 -27.283125 -0.42636639
14.615079 -27.276911 -0.42074144
14.670162 -27.281475 -0.41074193
14.709002 -27.282495 -0.42351058
23.312906 -27.805712 -0.40161005
23.340349 -27.811398 -0.4133307
14.618902 -27.238373 -0.42280799
14.670774 -27.228233 -0.41019833
23.315802 -27.754704 -0.41404697
23.34263 -27.75009 -0.41642928
23.316122 -27.712372 -0.41583678
23.340069 -27.701714 -0.42162853
21.929104 -27.551554 -0.40927505
21.953251 -27.559267 -0.40473068
23.264919 -27.649597 -0.40993631
23.318037 -27.664089 -0.41277424
21.926504 -27.519753 -0.41647321
21.963612 -27.519817 -0.40542343
23.315586 -27.607267 -0.41075435
21.923956 -27.48064 -0.41742396
21.963749 -27.471426 -0.40299332
23.310444 -27.551493 -0.41885191
21.687164 -27.385984 -0.41871974
21.865761 -27.41967 -0.43167132
21.930008 -27.421022 -0.41192016
21.972748 -27.446575 -0.42011505
23.285809 -27.510096 -0.39539939
23.307507 -27.506948 -0.41041115
21.687807 -27.353184 -0.41228157
21.711916 -27.362091 -0.392483
21.928093 -27.390642 -0.41446909
21.965405 -27.394232 -0.398893
23.294996 -27.436234 -0.40777022
23.311274 -27.444784 -0.40047076
21.678671 -27.310669 -0.41210797
23.292156 -27.424141 -0.40324605
23.319502 -27.421888 -0.40204537
21.692371 -27.249447 -0.39982277
21.728098 -27.260809 -0.42482793
21.655005 -27.213531 -0.40173194
21.69388 -27.206528 -0.40699664
21.726885 -27.23303 -0.40752736
23.267059 -27.232384 -0.39392367
23.255032 -27.191448 -0.40586627
23.282358 -27.203575 -0.40544531
13.233414 -29.682447 -0.36427259
13.245887 -29.684437 -0.34238076
13.226892 -29.639917 -0.35917193
13.22576 -29.596956 -0.35913768
13.262851 -29.617249 -0.35977411
13.232375 -29.546637 -0.35972062
13.268293 -29.562693 -0.36229333
13.240067 -29.494902 -0.35904923
13.255544 -29.515882 -0.36575991
13.239417 -29.438118 -0.35860929
13.238267 -29.394667 -0.35915658
14.722949 -29.478069 -0.38179478
13.008121 -29.322943 -0.37030008
13.030984 -29.334543 -0.35959232
13.159353 -29.316793 -0.37116873
13.169788 -29.315838 -0.34445599
13.243916 -29.34584 -0.3609677
13.295468 -29.366966 -0.35819018
13.011451 -29.277838 -0.36786449
13.033252 -29.281672 -0.36312172
13.263315 -29.319443 -0.34393728
13.012659 -29.234457 -0.37106031
13.038826 -29.232857 -0.36286399
13.078574 -29.243181 -0.35255641
21.728121 -29.768248 -0.34933895
21.772293 -29.762566 -0.36214936
21.810678 -29.766504 -0.35974038
13.039394 -29.192657 -0.3569338
13.08056 -29.203722 -0.33593234
13.220538 -29.170235 -0.35922995
13.23127 -29.190199 -0.35921636
19.288574 -29.56916 -0.34923062
21.7808 -29.722416 -0.36482143
13.227618 -29.13047 -0.34762722
13.238132 -29.141035 -0.36006364
19.242867 -29.507925 -0.36409801
19.278366 -29.514246 -0.3548415
19.319166 -29.498348 -0.35594448
21.781204 -29.683842 -0.34765619
13.223907 -29.087563 -0.36267725
13.239206 -29.09902 -0.35833663
13.286262 -29.074389 -0.36841241
14.706601 -29.173422 -0.38185897
19.238848 -29.471069 -0.35935131
19.287001 -29.474936 -0.35195398
19.321386 -29.455833 -0.35270768
22.09457 -29.632702 -0.35403615
22.123966 -29.639732 -0.33993369
9.2353354 -28.800117 -0.36217561
9.2649183 -28.800568 -0.36389375
13.22976 -29.029984 -0.36711776
13.242229 -29.044926 -0.35907114
19.249897 -29.421217 -0.35822949
19.289669 -29.393341 -0.36030689
22.044956 -29.597666 -0.36494672
22.076973 -29.600515 -0.35884672
9.2383766 -28.771051 -0.38281712
9.2667875 -28.745667 -0.35938007
9.2968512 -28.740114 -0.36978939
13.108281 -28.961843 -0.36164922
13.176731 -28.9746 -0.35523248
13.223414 -28.99032 -0.3595013
13.237783 -29.006248 -0.35731167
14.698936 -29.095064 -0.38074788
19.268908 -29.364176 -0.37491572
19.289351 -29.371098 -0.34935656
22.089336 -29.540766 -0.34569383
9.2293148 -28.691269 -0.35982779
9.2698975 -28.700466 -0.35602662
12.976229 -28.921885 -0.35772681
13.03267 -28.914206 -0.35551348
13.067669 -28.929878 -0.36155617
13.095174 -28.944332 -0.34944955
13.158875 -28.953712 -0.36314914
13.201917 -28.955427 -0.36612603
13.260558 -28.950018 -0.3683821
13.321021 -28.94099 -0.36405602
13.365284 -28.941402 -0.36749408
13.404662 -28.93622 -0.36646912
14.697508 -29.031034 -0.38464171
22.052202 -29.491974 -0.36923006
22.084393 -29.509571 -0.36800262
9.2344942 -28.627554 -0.36349258
9.2590342 -28.648014 -0.35985404
12.931624 -28.868603 -0.35559928
12.969237 -28.872017 -0.36402455
12.998395 -28.894806 -0.362124
13.059608 -28.896475 -0.38134548
13.338401 -28.913979 -0.37317121
13.363142 -28.920719 -0.35754102
13.427015 -28.902252 -0.3591921
13.450149 -28.903173 -0.36548439
21.613771 -29.41534 -0.36266077
21.634981 -29.409164 -0.36253455
22.065664 -29.454802 -0.35618043
22.083124 -29.459614 -0.36425129
9.2488117 -28.593193 -0.36029562
9.2863865 -28.614836 -0.36878395
13.132309 -28.831879 -0.35871899
13.317015 -28.84894 -0.35798311
13.354218 -28.841915 -0.38120902
13.435371 -28.851505 -0.35718888
13.455655 -28.846281 -0.37054431
14.702625 -28.910358 -0.3763327
13.09711 -28.764679 -0.37208971
13.125829 -28.770475 -0.36014485
13.15519 -28.765987 -0.35116369
13.276609 -28.782906 -0.35016817
13.326337 -28.790026 -0.35823768
13.372658 -28.804222 -0.36320871
13.415365 -28.817066 -0.36172011
14.69116 -28.900854 -0.38505578
14.705622 -28.889088 -0.38250208
13.087698 -28.732544 -0.36276436
13.118559 -28.728907 -0.35920528
13.188001 -28.715649 -0.37944812
13.289445 -28.765247 -0.3813853
13.324911 -28.755827 -0.37822276
13.378673 -28.749796 -0.37500143
13.418085 -28.764771 -0.36936203
14.701115 -28.822086 -0.37914264
13.092296 -28.690954 -0.3665795
13.120707 -28.685547 -0.35933378
13.173116 -28.675077 -0.34726307
13.249339 -28.706329 -0.36844406
13.342861 -28.698107 -0.37866509
13.381796 -28.700539 -0.37378255
13.426287 -28.694702 -0.3723951
14.684347 -28.756327 -0.37910703
13.137202 -28.636738 -0.3608759
13.197178 -28.6157 -0.37733606
13.344539 -28.660563 -0.3820636
13.391534 -28.655016 -0.37247536
13.431466 -28.657888 -0.37358087
13.483901 -28.656115 -0.35876372
13.523061 -28.644554 -0.36269885
13.56899 -28.637917 -0.36058885
19.263384 -28.996191 -0.35721457
13.150875 -28.576693 -0.35613066
13.170742 -28.587999 -0.3582204
13.235884 -28.596294 -0.34010872
13.274602 -28.60478 -0.36714199
13.346312 -28.612347 -0.35067469
13.40836 -28.594671 -0.34123114
13.442464 -28.585894 -0.35801011
13.487004 -28.609001 -0.36152744
13.522662 -28.604176 -0.36243269
13.596392 -28.638321 -0.36782479
19.236771 -28.94805 -0.36783651
19.283758 -28.965284 -0.36639199
19.309063 -28.967226 -0.35185966
13.310742 -28.53355 -0.36207917
13.334247 -28.54641 -0.35866454
13.383231 -28.559313 -0.35973772
13.43343 -28.569653 -0.36646315
13.494922 -28.573196 -0.36109972
13.515631 -28.564264 -0.37656039
19.288034 -28.906584 -0.36433718
19.309841 -28.913439 -0.35593483
12.687503 -28.451496 -0.36128235
12.756392 -28.450613 -0.36000893
12.796572 -28.440853 -0.35715035
13.052194 -28.471552 -0.35366768
13.088951 -28.467844 -0.37746465
13.16885 -28.463963 -0.35768566
13.200683 -28.470741 -0.36109653
13.243287 -28.492371 -0.36098069
13.281506 -28.514355 -0.36290053
13.392561 -28.519743 -0.35708356
13.439025 -28.525331 -0.37194163
19.245039 -28.853516 -0.36177239
19.278219 -28.869719 -0.35596573
19.315453 -28.853336 -0.35330003
20.558023 -28.940233 -0.37397203
12.703983 -28.404669 -0.36283225
12.747803 -28.419542 -0.35915408
12.813157 -28.393574 -0.36141914
12.825552 -28.396563 -0.34279755
13.085982 -28.452478 -0.35877097
13.162417 -28.457682 -0.36181039
13.201895 -28.431614 -0.35941187
13.254947 -28.464073 -0.35623294
13.271844 -28.46653 -0.38003498
14.685793 -28.546425 -0.38471502
19.255585 -28.836409 -0.38011041
19.271685 -28.829132 -0.35882404
20.548435 -28.879759 -0.37164584
20.568165 -28.91608 -0.36999065
12.742192 -28.378351 -0.36246961
12.81668 -28.380421 -0.36567259
12.827911 -28.373987 -0.35254788
12.898965 -28.348795 -0.36182594
12.858888 -28.313074 -0.36026657
12.905715 -28.332815 -0.35766193
12.975799 -28.307055 -0.36711365
12.990028 -28.311291 -0.35653165
21.651672 -28.850428 -0.37430573
13.007164 -28.293249 -0.36135915
13.064143 -28.276047 -0.35973138
13.115592 -28.261133 -0.35945472
21.631645 -28.814789 -0.36110091
13.032522 -28.238483 -0.36463407
13.035398 -28.236654 -0.34224325
13.11939 -28.254044 -0.36165434
13.165637 -28.240702 -0.36017433
13.199785 -28.228968 -0.36082968
13.172218 -28.204788 -0.36049247
13.202117 -28.18162 -0.36065739
22.061424 -28.722147 -0.35788414
22.083071 -28.727287 -0.36935538
13.20106 -28.142498 -0.36039007
14.677882 -28.250233 -0.38264465
22.067175 -28.69902 -0.36042681
22.101627 -28.69137 -0.35507923
13.016716 -28.080557 -0.36278558
13.189509 -28.108887 -0.36150488
13.207385 -28.09276 -0.36021981
13.249216 -28.115421 -0.3594493
22.010607 -28.627615 -0.37014759
22.062342 -28.636333 -0.35846248
22.105124 -28.640368 -0.36313078
22.147543 -28.660751 -0.34651297
12.982298 -28.020393 -0.36337796
13.025754 -28.012127 -0.36620635
13.061282 -28.009089 -0.34187594
13.190985 -28.029535 -0.35942188
13.203708 -28.045586 -0.36130604
21.825237 -28.551529 -0.35318446
22.062756 -28.584488 -0.35415706
22.097824 -28.591728 -0.36899897
22.12994 -28.567278 -0.34309059
12.988073 -27.974161 -0.36924389
13.024828 -27.980648 -0.35730258
13.214149 -28.002705 -0.35753655
21.759703 -28.507692 -0.36441129
21.800758 -28.512354 -0.36068422
21.849125 -28.526173 -0.35262257
21.887135 -28.529501 -0.3760097
22.069656 -28.548325 -0.35240167
22.114721 -28.561573 -0.36327472
22.135405 -28.561506 -0.33860314
12.986099 -27.925579 -0.36821973
13.01181 -27.941437 -0.3616147
21.766069 -28.466551 -0.36764175
21.804062 -28.467701 -0.34920442
21.867912 -28.469507 -0.37605736
21.887447 -28.45896 -0.37272629
12.988344 -27.871725 -0.37110832
13.023403 -27.866192 -0.35217798
13.195665 -27.892282 -0.3608554
13.208484 -27.89459 -0.36346501
21.766834 -28.422598 -0.37112823
21.798092 -28.431253 -0.36807698
21.863037 -28.443611 -0.36186433
13.199984 -27.837652 -0.35907516
13.223277 -27.858467 -0.36019254
21.780537 -28.368275 -0.35969046
21.808338 -28.359058 -0.3510395
13.196446 -27.783031 -0.36168256
14.682716 -27.862597 -0.38439143
21.783218 -28.331057 -0.36064664
21.800343 -28.327717 -0.34843308
22.115753 -28.325989 -0.35291621
22.171665 -28.322628 -0.34282988
13.19368 -27.740541 -0.35990846
13.244636 -27.716387 -0.36747476
22.065699 -28.27273 -0.380227
22.118309 -28.286863 -0.35403755
13.19349 -27.691067 -0.36039099
13.224265 -27.697115 -0.35561877
21.985203 -28.219103 -0.38272491
22.03014 -28.242262 -0.35158819
22.08021 -28.234091 -0.36934814
22.10968 -28.233454 -0.34244817
22.165047 -28.247105 -0.33935049
12.805637 -27.601145 -0.36743033
12.823133 -27.600191 -0.34216771
13.167794 -27.615118 -0.3638804
13.186149 -27.63979 -0.36088929
14.667031 -27.719809 -0.3700006
14.673957 -27.722687 -0.36048481
22.029396 -28.162151 -0.36620343
22.074228 -28.196461 -0.35557473
22.116545 -28.190729 -0.37084618
12.782973 -27.566092 -0.36191717
13.162926 -27.587788 -0.35785642
13.187741 -27.585859 -0.36030516
13.234597 -27.592125 -0.36398154
14.69151 -27.701389 -0.37381789
22.049129 -28.129381 -0.36814931
22.075027 -28.133564 -0.35100564
13.19168 -27.551575 -0.36098149
14.649705 -27.637306 -0.37526914
14.669527 -27.448336 -0.37341076
14.698741 -27.437492 -0.38300598
23.34557 -27.958942 -0.36495504
23.350382 -27.912048 -0.36148527
14.672061 -27.311642 -0.37762624
23.319738 -27.855728 -0.36666018
23.342691 -27.857924 -0.36038846
23.390249 -27.880241 -0.35375088
14.679941 -27.287195 -0.37810034
23.306015 -27.801632 -0.34850022
23.340666 -27.814831 -0.35890052
23.31838 -27.757332 -0.36643454
23.34207 -27.75374 -0.3708761
23.316767 -27.707302 -0.36326867
23.341364 -27.716482 -0.36205173
21.99062 -27.557383 -0.3600376
23.263844 -27.647223 -0.35457855
23.318844 -27.662228 -0.36821795
21.976086 -27.523481 -0.36433139
22.007498 -27.522511 -0.35833895
23.31415 -27.603279 -0.3569259
21.944191 -27.453775 -0.33893514
21.974812 -27.4772 -0.36838475
22.016733 -27.486704 -0.34395257
22.049768 -27.503948 -0.34366649
23.309727 -27.551546 -0.36725491
21.925291 -27.411943 -0.36499175
21.974953 -27.422283 -0.36811486
22.019442 -27.435364 -0.35020274
23.293898 -27.49058 -0.34164318
23.312595 -27.504995 -0.36356884
21.687309 -27.363991 -0.38236713
21.973207 -27.384686 -0.36025953
22.021463 -27.382721 -0.35338569
23.292107 -27.448118 -0.34945169
23.309422 -27.448816 -0.35720247
21.67824 -27.3262 -0.37338665
23.287338 -27.411411 -0.35072431
23.312883 -27.425293 -0.34261319
21.70348 -27.255808 -0.37854701
21.726114 -27.260248 -0.37832615
21.694466 -27.210506 -0.36690024
23.288521 -27.287283 -0.36313787
23.260283 -27.243065 -0.369023
23.290548 -27.276386 -0.36094052
23.249765 -27.198385 -0.34636253
23.282471 -27.203587 -0.36224881
13.236624 -29.673246 -0.30693266
13.24707 -29.680111 -0.31134313
13.227489 -29.638378 -0.31066555
13.22571 -29.595539 -0.30994034
13.264128 -29.611296 -0.31022936
13.233021 -29.545454 -0.31051558
13.273064 -29.564526 -0.3111046
13.23892 -29.49255 -0.30892971
13.236651 -29.439823 -0.30931723
13.238992 -29.39168 -0.30946088
13.045058 -29.310413 -0.33347929
13.094732 -29.324848 -0.31818414
13.176795 -29.323408 -0.30878064
13.2396 -29.345682 -0.30974507
13.286013 -29.365055 -0.30990794
13.044591 -29.283411 -0.32945645
13.095729 -29.284321 -0.31378722
13.135384 -29.286049 -0.30219874
13.207088 -29.299137 -0.30203941
13.254776 -29.315651 -0.30619535
13.057059 -29.2486 -0.32770291
13.096917 -29.233175 -0.32000536
13.133384 -29.234467 -0.30851808
13.183467 -29.23642 -0.29158717
13.227375 -29.254311 -0.28931165
21.799299 -29.770861 -0.31767488
13.062476 -29.201607 -0.32632452
13.122217 -29.202623 -0.31727198
13.143647 -29.196526 -0.3075859
13.213052 -29.181522 -0.30225825
13.231926 -29.188423 -0.31061628
19.282082 -29.574629 -0.32553351
21.780895 -29.732563 -0.32984981
13.22682 -29.129511 -0.30796525
13.239018 -29.13862 -0.31003997
19.250902 -29.506409 -0.32498693
19.285179 -29.515543 -0.31396407
19.338713 -29.497263 -0.32709694
22.1502 -29.673311 -0.30780503
22.175016 -29.676222 -0.28935257
13.226358 -29.089571 -0.31221271
13.244008 -29.093739 -0.30934608
19.261393 -29.476881 -0.32999632
19.299412 -29.473146 -0.31030494
22.084393 -29.627752 -0.30339864
22.137636 -29.642023 -0.30942401
22.170465 -29.64152 -0.30183759
13.225674 -29.038364 -0.30681631
13.241389 -29.042389 -0.30983117
19.250727 -29.419195 -0.31807292
19.286207 -29.39061 -0.33509016
22.098501 -29.586843 -0.31977206
22.137293 -29.595129 -0.31665894
9.2644157 -28.733675 -0.31550527
13.181725 -28.979519 -0.31292081
13.224059 -28.98971 -0.3097651
13.238445 -29.00754 -0.31228513
19.297096 -29.378531 -0.31578645
22.058496 -29.515715 -0.33711979
22.103914 -29.544786 -0.30155179
22.130611 -29.54311 -0.31156448
9.230401 -28.679726 -0.32626122
12.921293 -28.911226 -0.28824723
12.959571 -28.918781 -0.31220275
13.033404 -28.915552 -0.31229541
13.067151 -28.928455 -0.31165418
13.109784 -28.944712 -0.31064934
13.169624 -28.95467 -0.30651468
13.203238 -28.960978 -0.30634648
22.058243 -29.503662 -0.33644298
22.109638 -29.488934 -0.31752062
22.12541 -29.510626 -0.30192399
9.2248163 -28.621 -0.32038945
9.2540302 -28.661591 -0.33057678
12.773963 -28.859917 -0.30052471
12.829593 -28.845324 -0.31132203
12.934261 -28.867157 -0.31325424
12.988439 -28.873829 -0.3147876
13.004142 -28.895164 -0.30867296
13.095379 -28.892288 -0.31770742
13.177559 -28.905653 -0.32728326
13.216219 -28.894842 -0.30476063
13.268129 -28.873959 -0.29080194
13.323102 -28.88205 -0.29795915
13.372283 -28.883629 -0.30419645
13.412138 -28.887104 -0.31973177
22.105055 -29.451273 -0.30996478
9.233058 -28.620117 -0.32242054
9.2633123 -28.612823 -0.32302046
12.767895 -28.798811 -0.29043639
12.817683 -28.803419 -0.29617295
12.879679 -28.824339 -0.31082308
12.922023 -28.832787 -0.29055232
12.977934 -28.83213 -0.29324746
13.023771 -28.834599 -0.2928625
13.144258 -28.826305 -0.33149284
13.159226 -28.820141 -0.30416042
13.244961 -28.850449 -0.29067627
13.27959 -28.845707 -0.29713762
13.320354 -28.841658 -0.29572514
13.376289 -28.846544 -0.29866752
13.416233 -28.846151 -0.31751135
12.742068 -28.781256 -0.28760788
12.7623 -28.781427 -0.29423988
12.830854 -28.784641 -0.28787759
12.856435 -28.776178 -0.2881355
12.993071 -28.799274 -0.30934715
13.060776 -28.779863 -0.30489326
13.125687 -28.765978 -0.32044554
13.159691 -28.77277 -0.30618119
13.237527 -28.779665 -0.31078565
13.277813 -28.791264 -0.31033969
13.322663 -28.805176 -0.30446815
13.373173 -28.816935 -0.31178954
13.419997 -28.82733 -0.32368991
13.096122 -28.724842 -0.31401417
13.129471 -28.733641 -0.31201518
13.164176 -28.750631 -0.30094483
13.096687 -28.696405 -0.31617805
13.129506 -28.688484 -0.30993301
13.169782 -28.670158 -0.30916816
13.418405 -28.679871 -0.32885492
13.080053 -28.636839 -0.28737468
13.144192 -28.640577 -0.31078225
13.1726 -28.632324 -0.29773805
13.242464 -28.643257 -0.29598099
13.28939 -28.649281 -0.30831662
13.332171 -28.635365 -0.29446116
13.385831 -28.636822 -0.30151492
13.431351 -28.644522 -0.31050384
13.48309 -28.647953 -0.32014546
19.238344 -28.994825 -0.33253443
19.27882 -28.992977 -0.312581
12.987834 -28.559319 -0.29625151
13.037265 -28.588028 -0.29672256
13.084908 -28.592253 -0.29563576
13.148701 -28.591328 -0.30523244
13.176092 -28.575119 -0.30054736
13.237479 -28.583971 -0.30370289
13.280887 -28.595541 -0.30145657
13.342395 -28.597715 -0.30100685
13.38408 -28.594683 -0.3013252
13.438142 -28.598789 -0.31049484
13.481448 -28.602509 -0.31444445
13.520121 -28.599705 -0.32011417
19.278589 -28.964491 -0.3199369
19.320568 -28.963953 -0.31478477
12.959796 -28.538349 -0.29481718
12.983432 -28.536623 -0.29920399
13.029434 -28.521526 -0.29947826
13.079485 -28.534098 -0.30316368
13.145249 -28.529812 -0.29994065
13.203131 -28.527872 -0.29886425
13.247581 -28.533146 -0.29901373
13.305568 -28.534286 -0.31490302
13.339053 -28.54332 -0.30627111
13.38117 -28.563108 -0.30699226
13.436322 -28.568937 -0.30808625
13.483199 -28.57341 -0.32245994
19.295515 -28.899221 -0.32022443
19.32271 -28.927513 -0.31739706
12.686368 -28.448992 -0.30929708
12.751282 -28.448009 -0.3121565
12.779423 -28.439079 -0.3159636
13.028007 -28.473333 -0.32981679
13.098041 -28.498346 -0.29708526
13.147748 -28.486252 -0.29689252
13.204351 -28.473732 -0.30853319
13.242887 -28.490568 -0.31267759
13.283872 -28.504021 -0.3103539
13.357277 -28.515242 -0.29356721
13.395998 -28.520222 -0.3125757
13.422017 -28.52351 -0.31546575
19.24201 -28.852602 -0.31637451
19.281763 -28.858534 -0.31790963
19.311331 -28.841709 -0.33305869
12.714613 -28.403612 -0.33497441
12.749472 -28.418167 -0.31153229
12.781004 -28.411001 -0.30498344
12.832171 -28.395433 -0.31280631
13.184504 -28.445522 -0.3161386
13.262748 -28.465517 -0.32579654
13.279064 -28.468185 -0.31073305
19.288734 -28.828421 -0.32125148
12.752121 -28.372782 -0.31377611
12.820169 -28.389654 -0.32285187
12.837413 -28.376011 -0.30792907
12.909819 -28.348913 -0.31127572
12.927786 -28.3517 -0.29089606
12.864645 -28.312687 -0.31272748
12.906797 -28.323969 -0.31012648
12.936676 -28.325239 -0.30534413
12.995386 -28.309277 -0.31097379
13.017349 -28.290457 -0.3175028
13.062269 -28.279463 -0.31105521
13.105347 -28.26679 -0.30685481
13.050529 -28.233259 -0.31282604
13.124351 -28.254648 -0.3160291
13.155028 -28.244894 -0.30732605
13.197415 -28.227453 -0.30976143
13.182391 -28.201048 -0.31520283
13.199378 -28.178867 -0.30994263
22.108162 -28.732582 -0.31194094
13.2008 -28.140097 -0.31216478
22.106152 -28.699566 -0.31713003
22.141386 -28.684528 -0.30603808
13.186655 -28.106556 -0.3079617
13.209008 -28.089754 -0.30935946
13.243187 -28.113264 -0.31094116
22.110184 -28.631992 -0.32084197
22.14765 -28.644379 -0.3082346
22.174662 -28.664469 -0.30732903
12.983272 -28.009203 -0.3227928
13.001183 -28.003269 -0.30073971
13.069871 -28.01741 -0.32179627
13.105107 -28.019348 -0.29647213
13.19064 -28.034624 -0.31097457
13.202655 -28.043253 -0.31143144
22.069763 -28.600079 -0.33501685
22.091513 -28.600935 -0.31823
22.150494 -28.605501 -0.31657907
13.039082 -27.982025 -0.3253541
13.076076 -27.975586 -0.32762676
13.127933 -27.984404 -0.30384937
13.176785 -27.991102 -0.29659641
13.206285 -28.001148 -0.31054854
21.782183 -28.493011 -0.31973666
22.105759 -28.548368 -0.31520829
22.151478 -28.551989 -0.30569509
13.028982 -27.927866 -0.33037722
13.077371 -27.930962 -0.31664407
13.117702 -27.921463 -0.29364911
13.174256 -27.940447 -0.29377732
13.202763 -27.946827 -0.29225805
13.124307 -27.884127 -0.31107864
13.194475 -27.890379 -0.31063953
13.20968 -27.898058 -0.30720395
13.200209 -27.840309 -0.3100872
13.218019 -27.843805 -0.30954722
13.197008 -27.782921 -0.31132132
22.117502 -28.344498 -0.3380878
22.164354 -28.330997 -0.30855742
13.194276 -27.739536 -0.30983916
22.098219 -28.262049 -0.3314836
22.13121 -28.29014 -0.32264683
22.162878 -28.282995 -0.31030115
13.194839 -27.689594 -0.3098658
13.227736 -27.699642 -0.3105149
22.084087 -28.238264 -0.31585324
22.132883 -28.230095 -0.31305167
22.169203 -28.244408 -0.30919698
13.168626 -27.631166 -0.29608032
13.186884 -27.636372 -0.31195593
22.049576 -28.203928 -0.33635932
22.082767 -28.182432 -0.31924832
22.12956 -28.201307 -0.30790365
22.163288 -28.18556 -0.32580572
12.792539 -27.555197 -0.313045
13.166613 -27.591967 -0.31206173
13.190406 -27.584558 -0.3092013
13.226654 -27.58971 -0.31138942
22.091278 -28.15658 -0.31728595
22.117714 -28.150805 -0.30990109
13.190366 -27.548347 -0.31001264
23.307886 -27.952875 -0.32920349
23.348627 -27.963236 -0.31451073
23.348303 -27.911697 -0.31118581
23.312153 -27.851841 -0.30630702
23.341581 -27.854534 -0.30943304
23.392385 -27.8836 -0.31068653
23.319275 -27.801949 -0.30570233
23.336685 -27.811949 -0.31137931
23.317501 -27.75733 -0.31245512
23.347557 -27.755375 -0.31923446
23.316936 -27.708027 -0.31299013
23.36038 -27.733236 -0.3155348
23.269529 -27.642317 -0.29801449
23.314274 -27.657347 -0.31674191
22.024492 -27.525085 -0.31352797
22.062027 -27.513052 -0.33194011
23.249176 -27.602779 -0.29713562
23.313957 -27.601419 -0.30469602
21.993681 -27.491142 -0.30038929
22.025902 -27.471449 -0.32370621
22.05702 -27.477962 -0.31446818
23.286661 -27.538029 -0.31626165
23.311556 -27.558388 -0.31653163
23.360956 -27.552267 -0.29182446
22.025461 -27.423538 -0.3229306
22.06535 -27.418705 -0.3031131
23.277534 -27.50581 -0.32434192
23.305031 -27.511099 -0.32040504
22.016478 -27.388683 -0.31289798
22.059954 -27.374044 -0.30744109
23.292883 -27.446024 -0.30774581
23.316029 -27.446463 -0.3150174
23.290955 -27.41917 -0.31384477
23.318951 -27.415882 -0.28969112
23.285643 -27.34968 -0.31602231
23.306665 -27.377308 -0.32184958
23.291594 -27.303764 -0.3164109
23.279724 -27.266365 -0.31244645
23.321075 -27.248518 -0.29929221
23.25078 -27.19532 -0.29108563
23.280973 -27.201662 -0.31408301
13.234698 -29.671461 -0.25740662
13.245756 -29.67507 -0.26611799
13.225938 -29.637018 -0.26060149
13.222488 -29.593163 -0.25925601
13.264738 -29.606024 -0.26175854
13.201664 -29.558987 -0.25245598
13.227795 -29.543158 -0.26032126
13.258957 -29.562799 -0.25985554
13.234705 -29.488066 -0.25966755
13.233779 -29.438454 -0.26094696
13.234404 -29.391415 -0.25984564
13.201285 -29.32654 -0.27049336
13.236027 -29.342676 -0.25859725
13.271574 -29.36327 -0.26061964
13.205813 -29.287697 -0.26156139
13.23631 -29.295906 -0.25671127
13.206623 -29.243216 -0.26052135
13.238166 -29.244181 -0.25623497
13.170404 -29.209282 -0.28386995
13.217972 -29.192232 -0.27091253
13.233362 -29.196678 -0.25425109
13.224122 -29.138247 -0.25761318
13.238356 -29.140043 -0.26068088
22.151239 -29.704769 -0.28552204
22.166719 -29.674763 -0.27913362
13.225742 -29.091921 -0.25785983
13.240656 -29.094149 -0.2634767
22.111784 -29.615519 -0.25234264
22.142815 -29.640099 -0.2753709
22.173542 -29.622692 -0.25628558
13.226744 -29.044893 -0.25912961
13.2403 -29.038065 -0.26311666
22.098072 -29.577299 -0.26818344
22.144316 -29.589663 -0.27120522
22.197821 -29.608139 -0.27380317
13.187027 -28.97613 -0.27813005
13.222053 -28.986996 -0.26105586
13.240106 -28.998734 -0.24790511
22.161469 -29.543846 -0.2800988
12.873929 -28.901751 -0.26981291
12.901017 -28.906996 -0.26503053
12.972372 -28.933706 -0.25318199
13.022126 -28.922247 -0.27689877
13.069574 -28.918425 -0.26561579
13.120234 -28.934965 -0.25904024
13.169795 -28.946157 -0.25550467
13.21212 -28.958832 -0.25789586
13.241867 -28.96039 -0.24272723
22.134022 -29.482578 -0.28207582
12.765786 -28.858711 -0.26255488
12.831402 -28.890314 -0.25229591
12.87859 -28.85829 -0.25344226
12.926113 -28.86273 -0.25882465
12.968542 -28.874363 -0.26708525
13.016903 -28.88994 -0.25998875
13.063067 -28.883602 -0.26160574
13.105742 -28.876678 -0.27498466
13.170382 -28.880129 -0.2780734
12.725642 -28.791588 -0.25667119
12.77292 -28.803228 -0.26213229
12.829915 -28.815685 -0.26105782
12.870642 -28.825401 -0.26376656
12.91903 -28.82918 -0.27066949
12.970181 -28.832605 -0.27524155
13.024377 -28.8382 -0.26987699
13.077064 -28.830318 -0.26834115
13.122123 -28.831861 -0.26969388
13.173441 -28.833668 -0.26384425
13.223181 -28.843065 -0.26661688
13.262031 -28.837551 -0.27579188
13.358818 -28.84164 -0.28226215
12.729032 -28.779589 -0.26154897
12.789071 -28.787266 -0.28206414
12.883178 -28.778685 -0.28503397
12.970724 -28.787729 -0.27713344
13.02542 -28.789408 -0.27703369
13.07798 -28.775948 -0.27224794
13.132091 -28.785723 -0.27040476
13.177482 -28.786364 -0.27000651
13.22895 -28.790253 -0.26851124
13.266895 -28.803427 -0.2738269
13.316051 -28.801176 -0.27247691
13.084041 -28.728525 -0.27160376
13.127785 -28.73457 -0.2734296
13.162381 -28.756155 -0.27736503
12.955852 -28.662109 -0.27523294
12.986102 -28.660776 -0.26867634
13.039753 -28.665304 -0.25828761
13.082878 -28.681814 -0.26656687
13.127487 -28.685102 -0.27243039
13.168913 -28.679834 -0.27825132
12.995681 -28.64957 -0.26442018
13.032974 -28.626413 -0.25962806
13.082236 -28.630707 -0.26409337
13.133188 -28.635323 -0.27246997
13.177449 -28.629629 -0.27628306
13.228737 -28.620419 -0.27452859
13.266152 -28.621414 -0.27990311
12.961177 -28.551617 -0.25766766
12.991612 -28.572857 -0.26078239
13.035959 -28.582918 -0.26495385
13.086603 -28.584209 -0.27288729
13.138106 -28.588165 -0.27463096
13.192038 -28.588217 -0.27411285
13.236294 -28.592926 -0.27214751
13.290318 -28.594736 -0.26835585
13.338945 -28.596386 -0.27426064
13.365097 -28.5816 -0.278981
12.984492 -28.547012 -0.26267597
13.039112 -28.539398 -0.27400285
13.093718 -28.531151 -0.27901715
13.148913 -28.535988 -0.27506959
13.197049 -28.541931 -0.27458206
13.243362 -28.542782 -0.27297452
13.293741 -28.543388 -0.27314937
13.338434 -28.548126 -0.2762728
13.384378 -28.56004 -0.27784124
13.418814 -28.55744 -0.28333449
12.700249 -28.4464 -0.26072514
12.751838 -28.442913 -0.27059284
13.076915 -28.503792 -0.28525549
13.12753 -28.505346 -0.28291246
13.182743 -28.499136 -0.27423829
13.243608 -28.494699 -0.27586901
13.291888 -28.497969 -0.28299728
13.337353 -28.512573 -0.27938932
12.755344 -28.415588 -0.26004586
12.795099 -28.41453 -0.25968775
12.838921 -28.39327 -0.25978556
13.170979 -28.427864 -0.25885054
13.194753 -28.423035 -0.27283168
12.719303 -28.375015 -0.26513496
12.744408 -28.371626 -0.25988218
12.855644 -28.373096 -0.2596781
12.915248 -28.347006 -0.27590784
