# .PCD v0.7 - Point Cloud Data file format
VERSION 0.7
FIELDS x y z
SIZE 4 4 4
TYPE F F F
COUNT 1 1 1
WIDTH 1559
HEIGHT 1
VIEWPOINT 0 0 0 1 0 0 0
POINTS 1559
DATA ascii
12.219117 -35.630367 1.0964975
12.262446 -35.644035 1.0930694
12.284231 -35.635597 1.1073654
12.266755 -35.595566 1.0897137
12.283845 -35.595119 1.1083794
12.260745 -35.551746 1.0902787
12.287007 -35.564671 1.1061207
12.21463 -35.478741 1.0892223
12.265151 -35.493179 1.0944902
12.294067 -35.510387 1.0933011
12.232414 -35.44173 1.0952371
12.256233 -35.446575 1.0948308
12.21996 -35.382683 1.0904937
12.253678 -35.411701 1.0976682
12.174157 -35.337563 1.0924932
12.215681 -35.355946 1.099273
12.063052 -35.256592 1.0849096
12.128942 -35.285877 1.0934752
12.166937 -35.305698 1.0993309
11.972644 -35.221348 1.0932785
12.028756 -35.230801 1.0967494
12.079473 -35.237267 1.0955646
12.11353 -35.244965 1.1021118
11.98299 -34.605301 1.0895147
12.008649 -34.603134 1.0887607
12.027005 -34.593971 1.0947775
12.057854 -34.576176 1.0946264
12.136484 -34.578331 1.0766029
12.151981 -34.57296 1.0978764
12.090428 -34.553696 1.0694886
12.113335 -34.540981 1.0935951
12.154897 -34.515644 1.1062918
12.181767 -34.500675 1.0921705
12.217407 -34.488419 1.0955641
12.184808 -34.440903 1.0908839
12.217249 -34.448761 1.0971686
12.275417 -34.433372 1.0928054
12.324742 -34.445812 1.0938369
12.241032 -34.399536 1.0873754
12.280448 -34.382523 1.0918239
12.250875 -34.349533 1.08461
12.272101 -34.34724 1.0977601
12.334718 -34.338181 1.0954496
12.251268 -34.305286 1.0861815
12.290292 -34.302433 1.0979669
12.330603 -34.301888 1.0947217
12.36584 -34.298931 1.0891969
12.262325 -34.225471 1.073446
12.288107 -34.237514 1.0944061
12.328967 -34.24506 1.0947582
12.295976 -34.181114 1.0907688
12.329835 -34.188019 1.0958408
10.593801 -34.038841 1.0944585
12.255578 -34.123676 1.0878882
12.294494 -34.13377 1.0961821
12.328679 -34.140968 1.1014494
10.604149 -33.99744 1.0953664
10.671667 -33.978745 1.0945492
12.193653 -34.063496 1.0832615
12.25501 -34.083878 1.0886096
12.284246 -34.091713 1.101814
10.622134 -33.916874 1.0818416
10.66102 -33.951778 1.0940802
12.161857 -34.041485 1.0971328
12.214165 -34.040813 1.0958896
12.245293 -34.037617 1.0929652
12.277656 -34.058144 1.0994443
10.643169 -33.906124 1.0969239
12.069852 -33.973419 1.0898536
12.116297 -33.972351 1.0891242
12.161077 -33.967003 1.0937951
12.214739 -33.992886 1.0935562
10.640815 -33.839687 1.0941861
12.048502 -33.919655 1.0941124
12.10465 -33.941776 1.0972005
12.154179 -33.946606 1.0861083
12.186909 -33.928314 1.1073844
12.059849 -35.905331 1.1350307
12.08523 -35.9011 1.1457591
12.137293 -35.875851 1.146266
12.167287 -35.868435 1.1529301
12.091518 -35.84935 1.1491246
12.152727 -35.8237 1.1400397
12.188296 -35.82119 1.1400874
12.22223 -35.819218 1.1297574
12.163342 -35.794601 1.1346034
12.190018 -35.786209 1.1467317
12.230199 -35.798389 1.1480581
12.160938 -35.754421 1.1444039
12.209705 -35.755135 1.1478738
12.251995 -35.737514 1.1436827
12.276761 -35.73521 1.1603847
12.250265 -35.696026 1.1415818
12.262083 -35.62886 1.1385682
12.290278 -35.641659 1.1481069
12.261651 -35.59734 1.1454102
12.291562 -35.596249 1.1459022
12.271253 -35.54734 1.1368685
12.297397 -35.556099 1.1496942
12.229095 -35.473804 1.1300321
12.274428 -35.488495 1.1378773
12.295622 -35.499191 1.1517379
12.266071 -35.444992 1.1443098
12.294078 -35.44059 1.1573535
12.237165 -35.378796 1.1385938
12.257889 -35.402943 1.1521745
12.178169 -35.319672 1.1439927
12.220111 -35.350838 1.144622
12.249419 -35.359051 1.1521616
12.140725 -35.284084 1.1455736
12.175036 -35.298573 1.1479357
12.199256 -35.303093 1.1673082
11.983352 -35.217793 1.1493311
12.030727 -35.229301 1.1472218
12.082644 -35.238991 1.1384257
12.120035 -35.239494 1.1456151
12.084103 -35.204796 1.1567662
12.024489 -34.596668 1.1375436
12.06628 -34.579494 1.1423105
12.172525 -34.565845 1.135856
12.127321 -34.54285 1.1434098
12.159912 -34.533859 1.154548
12.181625 -34.501114 1.1472765
12.225894 -34.485092 1.1412627
12.25312 -34.47821 1.1649823
12.193769 -34.435356 1.1387215
12.233151 -34.442814 1.1443614
12.28897 -34.430916 1.140016
12.334191 -34.437778 1.1517494
12.251797 -34.391613 1.1195121
12.277984 -34.389988 1.1405898
12.313391 -34.3941 1.1469964
12.280441 -34.348507 1.1454184
12.33279 -34.348427 1.1422404
12.362984 -34.341816 1.1497793
12.285751 -34.298073 1.1433587
12.334968 -34.300251 1.1433662
12.373817 -34.297756 1.1488469
12.295212 -34.239544 1.1344552
12.339508 -34.24123 1.1429521
12.363017 -34.250626 1.1601863
12.300475 -34.196655 1.1439929
12.340748 -34.180111 1.1432184
12.371503 -34.189133 1.1625198
10.603413 -34.034115 1.1455566
12.298453 -34.137356 1.1428995
12.331218 -34.147789 1.1503538
10.574954 -33.996132 1.1436146
10.615123 -33.991764 1.1427474
10.64766 -33.989872 1.1476805
12.260044 -34.087429 1.1389592
12.293285 -34.094814 1.1451652
12.334666 -34.120747 1.1556481
10.660889 -33.950336 1.1431215
12.17287 -34.038719 1.1281221
12.20794 -34.048725 1.145511
12.255913 -34.040234 1.145918
12.286366 -34.054276 1.1494964
10.613717 -33.900307 1.1416141
10.647149 -33.902744 1.1489856
12.075685 -33.968258 1.1336217
12.080848 -33.965057 1.1591589
12.149202 -33.975742 1.1442008
12.223199 -33.987995 1.1357219
12.234818 -34.001106 1.1542968
10.578652 -33.834995 1.1513743
10.64712 -33.836491 1.1454349
12.059172 -33.916073 1.1459293
12.115026 -33.939667 1.1419905
12.168693 -33.95282 1.1399363
12.192627 -33.929951 1.1534389
12.090699 -35.89756 1.2014467
12.140471 -35.879025 1.1911002
12.170384 -35.867542 1.1935664
12.109664 -35.844479 1.191047
12.148249 -35.842228 1.2040056
12.182771 -35.83651 1.1944629
12.193601 -35.801479 1.1914747
12.243701 -35.795521 1.1890681
12.19537 -35.752449 1.1972843
12.236073 -35.752655 1.1990528
12.284837 -35.734863 1.1955324
12.266586 -35.694962 1.1883646
12.27774 -35.688545 1.2088906
12.266894 -35.622036 1.1789422
12.300386 -35.640739 1.1948936
12.27181 -35.606941 1.1946883
12.305911 -35.600182 1.195637
12.273277 -35.532841 1.1879511
12.305427 -35.549805 1.1951622
12.243388 -35.468685 1.1707866
12.305575 -35.491032 1.1945324
12.275431 -35.444199 1.1924419
12.298553 -35.439667 1.1996189
12.265818 -35.398785 1.1904058
12.194304 -35.3195 1.191366
12.228498 -35.345718 1.1945896
12.258512 -35.357021 1.2006469
12.147191 -35.276234 1.193848
12.175843 -35.293037 1.1961509
12.216659 -35.304237 1.1982589
12.249714 -35.315559 1.2042947
11.99192 -35.215179 1.1954367
12.029349 -35.235458 1.1935993
12.079566 -35.232315 1.1876328
12.124874 -35.23119 1.192553
12.15494 -35.252377 1.2014823
12.090693 -35.200378 1.1929457
12.027413 -34.563381 1.2076778
12.069301 -34.587341 1.1917971
12.107014 -34.573166 1.196103
12.124338 -34.551266 1.192168
12.159246 -34.532688 1.195672
12.203368 -34.555336 1.1969302
12.189331 -34.500355 1.1821022
12.220823 -34.488453 1.1935195
12.263922 -34.477783 1.1980325
12.231857 -34.429169 1.1883935
12.264602 -34.439919 1.1941887
12.312963 -34.426907 1.1908674
12.361174 -34.43288 1.1924474
12.292901 -34.392162 1.1950374
12.328189 -34.414215 1.1990967
12.289758 -34.33918 1.1906986
12.326283 -34.357906 1.1960007
12.378287 -34.336147 1.195269
12.296818 -34.294769 1.1927979
12.339683 -34.295864 1.1915027
12.378007 -34.293797 1.2001114
12.309128 -34.24865 1.1737981
12.34446 -34.240269 1.1928389
12.372419 -34.239182 1.1942662
12.30465 -34.208233 1.18799
12.345733 -34.188885 1.1924521
12.378316 -34.194199 1.198715
10.593148 -34.040691 1.1991782
10.634948 -34.034824 1.1993456
12.304346 -34.141594 1.1918395
12.344457 -34.157581 1.1932117
12.372376 -34.170238 1.2094001
10.574326 -33.995132 1.1703777
10.612613 -33.996231 1.1938879
10.645535 -33.989918 1.2022412
12.270307 -34.107285 1.1721331
12.298959 -34.0938 1.1919204
12.338337 -34.116272 1.2007192
10.659276 -33.945889 1.1924437
12.190937 -34.035099 1.1934805
12.246954 -34.044846 1.1930778
12.296424 -34.051735 1.1943634
12.326789 -34.063286 1.2177758
10.614122 -33.883324 1.1847012
10.643847 -33.901764 1.2016337
12.081506 -33.960918 1.1966279
12.152918 -33.977013 1.2005743
12.229472 -33.96587 1.1687027
12.248789 -34.002029 1.195835
10.592937 -33.829647 1.1883956
10.646398 -33.834396 1.1990234
12.067489 -33.911133 1.1961483
12.114476 -33.928387 1.1902317
12.158686 -33.938656 1.1959053
12.194706 -33.939526 1.1973182
12.237478 -33.961945 1.1966707
10.638962 -33.811264 1.1991853
12.109295 -35.893467 1.2341888
12.136555 -35.887955 1.2480309
12.174286 -35.866512 1.2342632
12.1365 -35.837528 1.2495017
12.185997 -35.855095 1.2453972
12.206349 -35.801037 1.2437873
12.245615 -35.805588 1.2370645
12.273598 -35.787712 1.2476543
12.207239 -35.750782 1.2453299
12.252996 -35.748646 1.2451189
12.298338 -35.734558 1.2430006
12.270622 -35.712368 1.2276659
12.29204 -35.693527 1.2478499
12.308067 -35.644218 1.241293
12.332739 -35.625465 1.2564839
12.277247 -35.617554 1.2208292
12.309085 -35.598347 1.2447553
12.335938 -35.59343 1.2451282
12.317256 -35.541534 1.2419164
12.337986 -35.549282 1.25986
12.321137 -35.485867 1.2412621
12.339547 -35.491119 1.2610898
12.276404 -35.443775 1.2416097
12.306706 -35.441757 1.2457573
12.281712 -35.402561 1.2391427
12.299242 -35.407288 1.2469678
12.238049 -35.342896 1.2346542
12.262906 -35.349224 1.2477527
12.181936 -35.283051 1.2444241
12.21071 -35.296856 1.2499553
12.257824 -35.311245 1.2389165
11.614101 -35.203102 1.2571557
12.043613 -35.230747 1.2375839
12.098248 -35.244213 1.2449957
12.122475 -35.230515 1.2431356
12.1656 -35.242973 1.2431912
12.087787 -35.199036 1.2405351
12.126305 -35.207474 1.2455943
12.036844 -34.561481 1.2233849
12.069164 -34.570148 1.2399096
12.110708 -34.576073 1.2467366
12.145312 -34.562176 1.2645018
12.136745 -34.545094 1.2255893
12.175956 -34.531433 1.2423744
12.218334 -34.542671 1.2486266
12.223939 -34.487053 1.2447115
12.2701 -34.482445 1.2417183
12.238695 -34.420498 1.2467662
12.280317 -34.439445 1.2432436
12.330386 -34.424728 1.2435054
12.375609 -34.427628 1.2388664
12.270344 -34.403404 1.2358735
12.324238 -34.401772 1.2445332
12.388874 -34.423225 1.2681922
12.297523 -34.341972 1.233698
12.331203 -34.346508 1.2431827
12.381124 -34.339104 1.2498633
12.304256 -34.306095 1.2305065
12.329653 -34.298084 1.245209
12.378921 -34.294731 1.2435066
12.415794 -34.279552 1.2491132
12.34574 -34.245914 1.2402991
12.383205 -34.244453 1.2458105
12.310894 -34.198444 1.2352803
12.341752 -34.19606 1.2451577
12.382561 -34.201664 1.2446207
10.587511 -34.039631 1.2424883
10.646413 -34.03064 1.2497479
12.315178 -34.137371 1.2275552
12.347134 -34.153328 1.2422199
12.378548 -34.165665 1.2484281
10.58861 -33.990116 1.2386045
10.633372 -33.995235 1.2426332
12.30814 -34.090275 1.2401724
12.34166 -34.105736 1.2453097
12.374382 -34.121841 1.2469054
10.655464 -33.943405 1.2403085
12.204842 -34.032547 1.2425959
12.249485 -34.043209 1.2413316
12.300364 -34.050323 1.2427876
12.336445 -34.059402 1.2487595
10.627424 -33.908661 1.2399633
10.64504 -33.897629 1.2428027
12.078742 -33.956856 1.2357795
12.169869 -33.972706 1.2480689
12.258882 -33.99511 1.2411855
12.285436 -34.010654 1.2570845
10.582073 -33.81686 1.2519963
10.617301 -33.836868 1.232677
10.641924 -33.840443 1.2479571
12.069028 -33.906258 1.2431067
12.104741 -33.916927 1.2387025
12.149984 -33.926888 1.2421117
12.201073 -33.942047 1.248047
12.249405 -33.956505 1.2451563
10.635292 -33.808998 1.2536838
12.091661 -33.904007 1.2668002
12.214996 -33.909584 1.2475034
12.146221 -35.88459 1.2944396
12.171699 -35.878948 1.3000171
12.154611 -35.832375 1.2912358
12.197549 -35.852222 1.2983441
12.222029 -35.852268 1.2958769
12.212069 -35.808693 1.2860582
12.232796 -35.796261 1.2925063
12.285018 -35.791641 1.2885605
12.216105 -35.73885 1.2746941
12.248132 -35.744713 1.2942783
12.29219 -35.737118 1.2939866
12.326475 -35.728951 1.3036156
12.306834 -35.687946 1.293285
12.328012 -35.702793 1.3102989
12.313148 -35.655354 1.2968208
12.336166 -35.644146 1.2965152
12.314551 -35.604034 1.2916183
12.343463 -35.595398 1.2938384
12.327929 -35.540379 1.2872677
12.34537 -35.544842 1.2993997
12.327253 -35.490971 1.2919387
12.348311 -35.484344 1.2974811
12.279715 -35.452557 1.2869942
12.320362 -35.442085 1.2941747
12.28769 -35.405125 1.2817378
12.309985 -35.404888 1.2959702
12.274285 -35.342876 1.2958834
12.189233 -35.275997 1.2979074
12.218117 -35.2869 1.2954326
12.269597 -35.304756 1.2901745
12.061037 -35.225037 1.2904475
12.126415 -35.235481 1.2944083
12.182218 -35.236912 1.2942371
12.091703 -35.195381 1.2969413
12.127916 -35.200211 1.2913097
12.065459 -34.555794 1.2695661
12.12184 -34.573219 1.2931297
12.08269 -34.551716 1.3008572
12.175327 -34.540558 1.2898742
12.209838 -34.531956 1.293936
12.250145 -34.539898 1.2972699
12.226593 -34.496059 1.2950433
12.272308 -34.473919 1.2943976
12.290913 -34.435577 1.2896472
12.308889 -34.450905 1.2998639
12.250177 -34.415894 1.2776341
12.273226 -34.407387 1.2962267
12.33571 -34.405281 1.2928261
12.373534 -34.408718 1.2941214
12.404119 -34.417862 1.3147389
12.305387 -34.33704 1.268649
12.334412 -34.340416 1.2917006
12.372835 -34.345074 1.2934247
12.336132 -34.294563 1.2952853
12.389048 -34.291801 1.2934537
12.416757 -34.307655 1.2919379
12.354671 -34.243294 1.2900813
12.387757 -34.245533 1.2949288
12.419593 -34.268211 1.302575
12.34075 -34.191143 1.297977
12.390006 -34.212414 1.2915735
12.415874 -34.215374 1.3178288
10.648147 -34.029736 1.2903744
12.352245 -34.148689 1.2917851
12.391553 -34.16029 1.2975736
10.600464 -33.992008 1.2846611
10.633998 -33.995632 1.2911714
12.305105 -34.087448 1.2973583
12.34315 -34.092449 1.2946516
12.382958 -34.109844 1.2953072
10.627574 -33.932476 1.2990121
10.64113 -33.943508 1.2914482
12.218818 -34.029594 1.2808635
12.25424 -34.035709 1.2936214
12.310575 -34.046715 1.2884886
12.336926 -34.05127 1.3010277
10.620478 -33.893612 1.2917091
10.64843 -33.913456 1.2867049
12.186196 -33.968628 1.2958952
12.266093 -33.984344 1.2858115
12.292682 -34.000881 1.2981254
10.613459 -33.819801 1.2949171
10.638198 -33.846329 1.2848288
12.074235 -33.904922 1.2692815
12.114892 -33.909893 1.2944251
12.145082 -33.922428 1.2899804
12.206983 -33.933868 1.2950317
12.262515 -33.952808 1.2977996
10.582621 -33.811226 1.3012291
10.627484 -33.807961 1.2968395
12.07949 -33.903599 1.2863752
12.092218 -33.90189 1.2967156
12.147618 -33.908707 1.3107038
12.22297 -33.902584 1.2993191
12.14563 -35.892567 1.3456372
12.182004 -35.875477 1.3492107
12.188932 -35.830982 1.3452665
12.227832 -35.848671 1.3454301
12.246563 -35.792225 1.3406935
12.296292 -35.787868 1.344143
12.253904 -35.73637 1.343745
12.291356 -35.737549 1.3455908
12.328508 -35.725281 1.3253615
12.316128 -35.692371 1.3462621
12.339459 -35.703827 1.3489314
12.321576 -35.665867 1.3336467
12.337597 -35.649811 1.3494793
12.326661 -35.590374 1.3366346
12.352096 -35.599854 1.3448458
12.358789 -35.549374 1.3440558
12.333655 -35.514835 1.3399491
12.358634 -35.493114 1.3447468
12.317668 -35.442627 1.338528
12.345808 -35.45155 1.3468357
12.322745 -35.401611 1.3434918
12.349123 -35.421406 1.3580929
12.279893 -35.335022 1.3441998
12.303203 -35.342663 1.347908
12.19677 -35.278759 1.3327533
12.223046 -35.283558 1.3434194
12.268192 -35.291119 1.3469735
12.072723 -35.219658 1.3462876
12.13632 -35.231564 1.3399171
12.188959 -35.236717 1.3435632
12.21668 -35.257637 1.3493547
12.097958 -35.193584 1.3428907
12.133982 -35.193451 1.3383805
12.156902 -35.200581 1.3590121
12.136921 -34.568901 1.3240744
12.152603 -34.565044 1.3521638
12.106776 -34.545448 1.3471657
12.178192 -34.551548 1.3445592
12.219728 -34.527565 1.3419352
12.272981 -34.532585 1.3419335
12.231405 -34.504639 1.3409113
12.259053 -34.481838 1.3462209
12.305936 -34.472694 1.3374703
12.278426 -34.461411 1.349526
12.322653 -34.440536 1.3479992
12.284806 -34.403137 1.3401901
12.325 -34.40691 1.3416388
12.368986 -34.404305 1.3452955
12.414975 -34.414135 1.3459506
12.343382 -34.337421 1.3428594
12.380684 -34.343754 1.3434883
12.344185 -34.295166 1.3519846
12.38948 -34.299839 1.3380727
12.419419 -34.300068 1.3448788
12.349711 -34.2677 1.3346437
12.384924 -34.251392 1.3396626
12.42873 -34.259056 1.3452544
12.356281 -34.183804 1.3445789
12.398556 -34.211483 1.3456526
12.423717 -34.213909 1.3543614
12.350783 -34.129906 1.3497764
12.394267 -34.152744 1.3416669
12.426554 -34.161789 1.3489577
10.600906 -33.991962 1.3290232
12.315695 -34.080696 1.3375558
12.352837 -34.089443 1.3423432
12.395581 -34.102959 1.3428515
10.623054 -33.935066 1.3405541
10.632325 -33.930206 1.345475
12.25047 -34.027908 1.3357219
12.294799 -34.036263 1.346965
12.346486 -34.047504 1.3456142
10.610456 -33.885311 1.3427255
12.197478 -33.965759 1.3479888
12.278066 -33.985451 1.3264915
12.302453 -33.993359 1.3454139
10.616024 -33.834801 1.3408976
12.124876 -33.908566 1.3371592
12.150046 -33.920082 1.3399243
12.211226 -33.926788 1.3414813
12.273921 -33.95013 1.3436065
10.62604 -33.811531 1.3263662
12.103198 -33.90007 1.3411293
12.154177 -33.905537 1.3460368
12.227068 -33.896587 1.3445392
12.140851 -35.894165 1.398454
12.189047 -35.877014 1.3934348
12.199713 -35.81963 1.3908824
12.242542 -35.845543 1.3950982
12.16257 -35.808491 1.383039
12.185394 -35.809109 1.409386
12.254847 -35.790634 1.3878095
12.29285 -35.782906 1.3946577
12.325121 -35.786503 1.4041522
12.265687 -35.735283 1.3872308
12.298222 -35.737556 1.3959366
12.323353 -35.770065 1.3996613
12.303724 -35.714268 1.3954788
12.346961 -35.700169 1.3961784
12.350671 -35.655621 1.398414
12.361289 -35.598392 1.3883076
12.383321 -35.595943 1.4055315
12.368023 -35.552456 1.3909727
12.386598 -35.550514 1.4000119
12.365024 -35.508804 1.3927428
12.320559 -35.43309 1.3904639
12.36472 -35.459179 1.3960116
12.391617 -35.47517 1.408589
12.329566 -35.395687 1.3906966
12.35509 -35.413494 1.3955553
12.289089 -35.327396 1.392722
12.313319 -35.341194 1.3951876
12.230332 -35.277763 1.3874618
12.27117 -35.29108 1.3920207
12.30385 -35.304993 1.411007
12.141089 -35.22913 1.3871315
12.182112 -35.22887 1.3958582
12.223113 -35.248203 1.3975788
12.10322 -35.190426 1.3808546
12.12729 -35.182072 1.3952584
12.168136 -35.196705 1.3938705
12.214213 -35.213921 1.4131761
12.165362 -34.561867 1.3866084
12.130709 -34.540405 1.3847902
12.174712 -34.554592 1.3965874
12.216247 -34.530884 1.3914946
12.266226 -34.528965 1.3904786
12.300715 -34.523945 1.4047085
12.241521 -34.508362 1.3835418
12.265785 -34.49099 1.3966365
12.284864 -34.457413 1.3908786
12.329136 -34.449764 1.3935882
12.356397 -34.44363 1.4026083
12.295466 -34.399181 1.3864318
12.33396 -34.405632 1.3954954
12.383222 -34.397831 1.3945845
12.426453 -34.404488 1.396682
12.378419 -34.347092 1.3910128
12.416583 -34.333443 1.397117
12.353644 -34.299656 1.3898664
12.38034 -34.307163 1.3955361
12.43062 -34.293652 1.3927165
12.388025 -34.251781 1.3937643
12.433835 -34.261551 1.3953397
12.462888 -34.260746 1.4139953
12.363649 -34.180069 1.3762438
12.395449 -34.198406 1.3887168
12.428961 -34.206886 1.3977047
12.364923 -34.152111 1.3853667
12.395585 -34.146912 1.393182
12.430024 -34.151737 1.3929697
12.357664 -34.089222 1.3872483
12.392917 -34.095951 1.3907572
12.424088 -34.100822 1.4015708
12.259099 -34.021328 1.3886129
12.305561 -34.031765 1.3936205
12.354994 -34.045361 1.3908358
12.379767 -34.05352 1.401955
12.206378 -33.9636 1.3819301
12.27209 -34.013832 1.410919
12.312548 -33.989075 1.3939857
12.342307 -34.010349 1.4031094
12.16285 -33.914318 1.3942665
12.21943 -33.944923 1.3912258
12.266087 -33.945137 1.39387
12.287036 -33.933605 1.3881773
12.111587 -33.894611 1.3902217
12.156849 -33.902336 1.3961235
12.217532 -33.902081 1.392813
10.211717 -33.670773 1.4128207
10.468334 -33.671455 1.4153234
10.221808 -33.605904 1.4101334
10.486356 -33.645042 1.4179375
10.2266 -33.570606 1.3923932
10.263169 -33.569138 1.4098253
10.332517 -33.571747 1.4108402
10.360612 -33.577217 1.4123651
10.424417 -33.571381 1.4153595
10.50319 -33.558334 1.4133623
10.265633 -33.536736 1.4030731
10.329005 -33.53804 1.4162076
10.36651 -33.527893 1.3864714
10.438073 -33.537899 1.3996596
10.461782 -33.521358 1.4121934
10.474958 -36.091412 1.4434927
10.532906 -36.099255 1.4508576
10.55256 -36.109627 1.4691786
12.157983 -35.889946 1.4320503
12.191411 -35.879009 1.4468123
12.247374 -35.846581 1.4450271
12.273578 -35.837856 1.4472791
12.20046 -35.80373 1.4433111
12.237995 -35.804562 1.4498216
12.291825 -35.783531 1.4493611
12.335475 -35.782631 1.4380587
12.296137 -35.747879 1.4392266
12.332619 -35.749004 1.4483428
12.305762 -35.713924 1.4492443
12.352221 -35.702011 1.4373125
12.380676 -35.702579 1.4523729
12.364284 -35.658386 1.448589
12.380373 -35.649006 1.4466426
12.368953 -35.59528 1.4378177
12.391782 -35.600365 1.4456047
12.36882 -35.560345 1.4360307
12.39357 -35.557144 1.4427407
12.374288 -35.512947 1.4402686
12.396513 -35.516861 1.4535748
12.320044 -35.428196 1.4410073
12.376623 -35.45311 1.4415054
12.397195 -35.467979 1.4469379
12.337538 -35.395447 1.4297031
12.363422 -35.405697 1.4461598
12.321428 -35.333717 1.4439741
12.348819 -35.363785 1.4459361
12.230811 -35.273075 1.4263892
12.27209 -35.286629 1.4416999
12.310542 -35.307621 1.4488409
12.148699 -35.22858 1.4328705
12.161733 -35.221825 1.4454781
12.226221 -35.248573 1.4421073
12.253462 -35.255966 1.4556528
12.123053 -35.178673 1.4456007
12.180553 -35.19149 1.4484842
12.226624 -35.210346 1.4474318
12.175279 -34.545391 1.4395566
12.209048 -34.546097 1.4454224
12.280706 -34.522453 1.4405208
12.309501 -34.521313 1.4290562
12.273929 -34.496765 1.4425334
12.311643 -34.50248 1.443336
12.294336 -34.453403 1.4262195
12.318452 -34.454369 1.4427181
12.36362 -34.436378 1.4434662
12.333624 -34.389477 1.4415702
12.376202 -34.39851 1.4431715
12.423235 -34.392483 1.4456373
12.455808 -34.400578 1.4540603
12.384799 -34.352715 1.4435272
12.422528 -34.331474 1.4400022
12.384764 -34.298855 1.4437735
12.431858 -34.304054 1.444455
12.46415 -34.304562 1.459325
12.39012 -34.252621 1.4434479
12.441714 -34.254513 1.4442797
12.470227 -34.261036 1.450567
12.397347 -34.201248 1.4384762
12.441634 -34.19973 1.4438765
12.399084 -34.152142 1.4386855
12.439633 -34.143734 1.4453391
12.395531 -34.098408 1.4397786
12.432184 -34.088078 1.4457463
12.270815 -34.020824 1.4354454
12.302377 -34.028576 1.4525014
12.360574 -34.042439 1.4400773
12.390435 -34.05426 1.4455738
10.453733 -33.870934 1.4653679
12.312726 -33.992149 1.4368448
12.344334 -33.998466 1.4482238
12.221921 -33.959938 1.4423938
12.244317 -33.93858 1.4520361
12.29283 -33.94059 1.4408685
12.122152 -33.892345 1.4383955
12.171621 -33.901386 1.4482398
12.217805 -33.90094 1.4447616
12.239303 -33.88282 1.4439409
10.212808 -33.703636 1.4333076
10.256089 -33.700249 1.4463769
10.383224 -33.717236 1.4512614
10.417127 -33.722622 1.4299066
10.46047 -33.72541 1.4473169
10.232856 -33.672623 1.431531
10.390238 -33.681351 1.4575727
10.427927 -33.689167 1.4522632
10.462556 -33.679932 1.4476881
10.502114 -33.665493 1.4603833
10.273039 -33.618828 1.4341319
10.440786 -33.6348 1.4353782
10.475675 -33.634937 1.4529846
10.513113 -33.639526 1.4651989
10.223553 -33.579815 1.4234498
10.280781 -33.561649 1.4304078
10.382134 -33.574615 1.422206
10.422441 -33.576683 1.4327232
10.477083 -33.570618 1.4457581
10.502756 -33.559597 1.4632262
10.397427 -33.544495 1.4209647
10.416303 -33.541237 1.4284513
10.48025 -33.534004 1.4351059
10.519588 -33.53754 1.4498218
12.186086 -35.881626 1.5021245
12.220239 -35.875416 1.4914044
12.211251 -35.865192 1.4719756
12.244191 -35.852936 1.4895223
12.28413 -35.834904 1.4960045
12.212542 -35.796024 1.4795382
12.237595 -35.799915 1.5018355
12.299668 -35.781708 1.4871409
12.338708 -35.777218 1.4879805
12.310087 -35.750923 1.4940584
12.347766 -35.749992 1.4967356
12.315613 -35.709267 1.4904182
12.34866 -35.702396 1.495041
12.392938 -35.700161 1.4991084
12.366047 -35.667068 1.4901487
12.386097 -35.652996 1.5003023
12.378458 -35.58007 1.4779092
12.401361 -35.597782 1.492319
12.377746 -35.554764 1.4941984
12.4061 -35.558594 1.4935223
12.43338 -35.556648 1.5186124
12.381899 -35.50153 1.4894348
12.406953 -35.510765 1.4981006
12.385606 -35.441456 1.4761453
12.403922 -35.458485 1.4970416
12.333651 -35.419319 1.4937197
12.374872 -35.401306 1.4907103
12.397761 -35.406723 1.5066211
12.335241 -35.327827 1.4930243
12.357151 -35.349007 1.4970607
12.27347 -35.279713 1.4924567
12.324118 -35.306583 1.4974995
12.352861 -35.323738 1.5142875
12.172921 -35.218346 1.4941489
12.238508 -35.248669 1.4949251
12.259871 -35.250763 1.4912368
12.304785 -35.268295 1.4943842
12.137313 -35.176895 1.4898413
12.189704 -35.187366 1.4939724
12.227649 -35.21051 1.4900187
12.188621 -34.530628 1.4830408
12.221255 -34.540482 1.4954885
12.256979 -34.529991 1.5016977
12.28944 -34.494995 1.4902043
12.312847 -34.498734 1.4966
12.328456 -34.447563 1.4941572
12.376112 -34.442741 1.4896241
12.346406 -34.381996 1.4931808
12.378753 -34.395794 1.4913415
12.423672 -34.386787 1.4932643
12.464061 -34.397636 1.4869287
12.400893 -34.349068 1.4873805
12.417128 -34.345108 1.5016476
12.394039 -34.296036 1.4858061
12.436527 -34.304146 1.4932457
12.475899 -34.294693 1.4995329
12.399532 -34.24963 1.4907327
12.445071 -34.248199 1.4911449
12.475234 -34.253708 1.4974537
12.412195 -34.200966 1.4812139
12.449609 -34.194317 1.4931644
12.472726 -34.201439 1.501392
12.405589 -34.151226 1.489029
12.445884 -34.141117 1.4974167
12.480869 -34.14513 1.4931643
12.407067 -34.100204 1.4864719
12.438373 -34.102627 1.4964669
12.324129 -34.033806 1.4833251
12.355539 -34.036827 1.4948972
12.398964 -34.049816 1.4944067
12.444085 -34.07407 1.4962479
10.45238 -33.870705 1.495141
12.297763 -34.00605 1.4906617
12.344804 -33.9874 1.492448
12.379912 -34.01165 1.4950029
10.402523 -33.816948 1.4819525
10.452497 -33.833229 1.4948456
12.253028 -33.941074 1.4993552
12.307042 -33.94096 1.4888188
10.424686 -33.775791 1.4922229
10.462279 -33.786594 1.4917915
12.132841 -33.891235 1.4765973
12.164514 -33.897045 1.4964646
12.20004 -33.893295 1.4971639
12.243688 -33.88121 1.501104
12.30832 -33.916687 1.5090467
10.440872 -33.735714 1.4886029
10.468485 -33.730614 1.4912882
10.503093 -33.717049 1.5058239
10.468734 -33.688354 1.4903634
10.499018 -33.686192 1.4991553
10.486408 -33.640358 1.4809153
10.508031 -33.629265 1.4977026
10.515964 -33.560833 1.471855
10.469914 -33.549572 1.4768721
10.527536 -33.539169 1.4778311
12.206833 -35.876415 1.5429105
12.23281 -35.871571 1.5451261
12.247186 -35.859386 1.5432206
12.291506 -35.833588 1.5375236
12.321215 -35.82597 1.5587859
12.249578 -35.790058 1.5424253
12.290702 -35.794411 1.5507574
12.324379 -35.776421 1.5631998
12.345183 -35.757877 1.5436924
12.378002 -35.760307 1.550751
12.32151 -35.720711 1.5288049
12.350445 -35.707447 1.5458257
12.403805 -35.696632 1.5451612
12.426604 -35.679832 1.5637714
12.375258 -35.665104 1.5209719
12.399194 -35.652351 1.5477396
12.416594 -35.599243 1.5405161
12.434932 -35.587978 1.5504462
12.411147 -35.560768 1.5409648
12.439187 -35.558979 1.5518403
12.419704 -35.505527 1.5479908
12.438622 -35.513008 1.55469
12.419286 -35.452019 1.5457453
12.373534 -35.397175 1.5432947
12.404747 -35.401852 1.5443751
12.342499 -35.325977 1.526843
12.369272 -35.345261 1.543988
12.284214 -35.280231 1.5270519
12.330117 -35.306999 1.5470912
12.358145 -35.317097 1.554432
12.179788 -35.21978 1.5406488
12.245857 -35.236023 1.5389515
12.268764 -35.249687 1.5479299
12.331682 -35.267017 1.5429324
12.131464 -35.176796 1.5314816
12.193217 -35.200546 1.5432737
12.235169 -35.205894 1.5342059
12.255483 -35.203327 1.5560192
10.490412 -34.930492 1.5664147
12.22639 -34.535995 1.5395536
12.258698 -34.530506 1.5530397
12.227356 -34.513401 1.5658998
12.321238 -34.486794 1.5434501
12.357538 -34.50716 1.5404335
12.344746 -34.446064 1.5407357
12.371499 -34.439972 1.54883
12.405051 -34.427631 1.5293229
12.39171 -34.392944 1.5319086
12.427457 -34.389339 1.5496265
12.482528 -34.391544 1.542225
12.370354 -34.369968 1.5434408
12.428345 -34.351261 1.5415589
12.399478 -34.290894 1.5319126
12.439186 -34.300468 1.5436615
12.4812 -34.304787 1.5405806
12.410033 -34.247517 1.5283668
12.44106 -34.249077 1.5391759
12.483459 -34.251049 1.5455577
12.445519 -34.200977 1.5411019
12.48135 -34.193195 1.5460551
12.414619 -34.143364 1.5410947
12.448087 -34.147167 1.544929
12.484061 -34.147507 1.5535603
12.41385 -34.112946 1.5356464
12.448042 -34.10474 1.5424712
12.478547 -34.126213 1.5469326
12.359958 -34.036568 1.5427985
12.407551 -34.051792 1.539963
12.440413 -34.067295 1.5492789
12.307359 -34.006016 1.5434206
12.355746 -33.988953 1.5420508
12.400209 -34.012409 1.5402603
10.438516 -33.845791 1.5198081
12.267746 -33.936871 1.5495905
12.316887 -33.936764 1.5392843
12.352879 -33.967663 1.5601017
12.166771 -33.891659 1.5463817
12.197678 -33.890244 1.5442448
12.246279 -33.875946 1.5428069
12.311535 -33.911533 1.5473272
10.493676 -33.680222 1.5269524
12.233093 -35.869911 1.5928555
12.2549 -35.86171 1.5889597
12.28854 -35.846886 1.5944903
12.327807 -35.824348 1.5756665
12.262552 -35.781879 1.577804
12.287773 -35.796413 1.5997424
12.332156 -35.812313 1.5952928
12.34954 -35.757317 1.5949876
12.387595 -35.753967 1.5985558
12.358078 -35.69846 1.5951378
12.398301 -35.701305 1.5903474
12.42812 -35.69347 1.6070561
12.411736 -35.650547 1.5934217
12.433919 -35.664028 1.6034819
12.420979 -35.601364 1.5920211
12.442636 -35.599651 1.5998994
12.418941 -35.555809 1.58787
12.445559 -35.55772 1.5946246
12.428158 -35.499168 1.589218
12.445699 -35.501431 1.5989946
12.43135 -35.446907 1.5907943
12.445292 -35.449379 1.6074743
12.3742 -35.40469 1.5966721
12.41765 -35.396572 1.5954949
12.38866 -35.358204 1.5925286
12.411666 -35.371922 1.6037616
12.33531 -35.297981 1.5928031
12.368466 -35.31411 1.5963389
10.452706 -35.118355 1.5885724
10.484385 -35.124397 1.6053281
12.189769 -35.217201 1.5883044
12.252072 -35.238106 1.5701894
12.277024 -35.243134 1.5937663
12.318263 -35.256592 1.5986738
12.359893 -35.26252 1.6005106
10.483036 -35.10181 1.6011811
10.545731 -35.091778 1.6140246
12.194358 -35.206085 1.5891695
12.216414 -35.193165 1.5932031
12.269 -35.204861 1.5987513
10.455243 -35.019928 1.5946035
10.487568 -35.021782 1.6006833
10.54023 -35.035419 1.6113657
10.455858 -34.984951 1.6046666
10.49789 -34.983772 1.5998986
10.45959 -34.952091 1.601474
10.493315 -34.924385 1.5979222
10.528241 -34.93787 1.6021971
10.495076 -34.883137 1.6028608
10.544462 -34.873589 1.5791126
10.500026 -34.837334 1.5904642
10.545305 -34.834694 1.6135556
10.522722 -34.77227 1.6131085
10.520187 -34.739338 1.610622
12.225271 -34.547752 1.5947397
12.268992 -34.527153 1.5946163
12.238674 -34.509666 1.5891417
12.27243 -34.511993 1.5957026
12.329372 -34.490349 1.5950303
12.37355 -34.498024 1.5978596
12.340971 -34.468033 1.5752552
12.362883 -34.445862 1.5954469
12.410054 -34.437275 1.5966851
12.382781 -34.421181 1.6096489
12.425477 -34.394253 1.591873
12.473827 -34.383179 1.5872571
12.509482 -34.38316 1.6038331
12.384041 -34.363625 1.5884519
12.434579 -34.361889 1.5968642
12.461203 -34.372463 1.5952399
12.406966 -34.283699 1.5687208
12.440583 -34.298038 1.5853065
12.478149 -34.302273 1.5917146
12.514417 -34.286663 1.6108282
12.439152 -34.260986 1.5988283
12.49502 -34.248409 1.5908132
12.51904 -34.239216 1.5975764
12.449656 -34.205826 1.5935478
12.495234 -34.198544 1.5932293
12.44305 -34.139851 1.592388
12.486876 -34.154953 1.5985717
12.447224 -34.108311 1.5891516
12.489836 -34.117985 1.6012398
12.364732 -34.026131 1.5961862
12.401284 -34.039604 1.5928729
12.448331 -34.063389 1.5917944
12.483836 -34.067471 1.6008055
12.31475 -33.995575 1.5900781
12.352058 -33.990307 1.5923378
12.404174 -34.003563 1.5959185
12.43265 -34.01791 1.5860354
12.270554 -33.949242 1.5949588
12.316226 -33.9235 1.5801984
12.358174 -33.958324 1.5986719
12.171695 -33.887806 1.5943437
12.205365 -33.887383 1.5871527
12.240845 -33.873302 1.5914655
12.313888 -33.91156 1.5989813
12.20954 -35.852051 1.6424067
12.245031 -35.85844 1.6526204
12.290178 -35.851616 1.6427759
12.323282 -35.835464 1.6473223
12.303358 -35.791794 1.6399711
12.346512 -35.815269 1.6446207
12.297499 -35.769505 1.653733
12.361502 -35.758167 1.6408266
12.393752 -35.746723 1.6438025
12.423472 -35.737766 1.6595889
12.367964 -35.69809 1.6339365
12.398851 -35.692337 1.6476998
12.437832 -35.691479 1.6403254
12.420289 -35.649963 1.6303405
12.440116 -35.649437 1.6516443
12.429687 -35.588963 1.6290286
12.452727 -35.595966 1.645807
12.426353 -35.549309 1.6295488
12.456864 -35.554359 1.644767
12.432685 -35.513855 1.6460954
12.456199 -35.495605 1.6454258
12.452122 -35.443871 1.6463455
12.378283 -35.39188 1.6499566
12.42464 -35.39732 1.6406066
12.446526 -35.406303 1.657233
12.413941 -35.360222 1.6466527
10.550451 -35.16375 1.6212893
12.330912 -35.279228 1.6505654
12.375842 -35.307362 1.6423674
12.398984 -35.319542 1.6637756
10.498344 -35.137871 1.6284508
10.531588 -35.126312 1.6353651
10.580245 -35.135391 1.6554813
12.276518 -35.234074 1.6412057
12.318967 -35.252457 1.645124
12.370131 -35.255882 1.6464634
10.497922 -35.103317 1.6329596
10.533696 -35.100193 1.6449239
10.569066 -35.091476 1.6549456
12.20216 -35.208256 1.6260803
12.220678 -35.196564 1.647231
12.282587 -35.20639 1.6500365
10.494516 -35.03915 1.6250428
10.541393 -35.024288 1.644084
10.573696 -35.033291 1.6533381
10.500385 -34.98901 1.6317682
10.534318 -34.988689 1.6398233
10.577941 -35.000641 1.6623327
10.516582 -34.924889 1.6245036
10.546261 -34.937698 1.646353
10.494507 -34.89323 1.6256372
10.54775 -34.892033 1.6458559
10.574398 -34.910839 1.6620207
10.503928 -34.820915 1.639938
10.532911 -34.843056 1.6419287
10.528648 -34.726665 1.636163
10.535121 -34.746231 1.6351652
12.241686 -34.542706 1.6268084
12.275475 -34.526218 1.6397116
12.302376 -34.521984 1.6384702
12.275076 -34.504829 1.6428621
12.315682 -34.508335 1.6480172
12.370877 -34.485306 1.6449435
12.400909 -34.495308 1.654379
12.375042 -34.454559 1.6463372
12.427158 -34.43124 1.6467268
12.392705 -34.415913 1.6438922
12.436927 -34.395824 1.6477604
12.458408 -34.410866 1.6557238
12.399285 -34.355873 1.6334872
12.438744 -34.358246 1.6437885
12.473763 -34.367256 1.6413877
12.522182 -34.379013 1.6456432
12.453772 -34.318459 1.6258768
12.485053 -34.301086 1.6416101
12.518911 -34.289246 1.6462898
12.450506 -34.25502 1.6455768
12.4871 -34.260223 1.6378125
12.523028 -34.247746 1.646683
12.458535 -34.209995 1.6334286
12.490581 -34.214165 1.6451993
12.525289 -34.211102 1.6529901
12.462187 -34.154781 1.6412894
12.498739 -34.165615 1.6422966
12.519505 -34.172928 1.6527416
12.449595 -34.109612 1.6418043
12.497519 -34.115719 1.6476434
12.529538 -34.123905 1.6558787
12.375999 -34.024185 1.630115
12.388501 -34.026726 1.6285127
12.453597 -34.055649 1.6452633
12.493885 -34.058857 1.643324
12.319701 -33.982304 1.6501373
12.344881 -34.011959 1.6495137
12.407514 -34.000633 1.6444666
12.438467 -34.009064 1.6457108
12.278832 -33.947506 1.6210228
12.28659 -33.945915 1.6480305
12.361065 -33.951344 1.638901
12.382979 -33.957592 1.6584252
12.177174 -33.882233 1.6263446
12.216353 -33.888412 1.6340767
12.318751 -33.906349 1.6415058
12.24189 -35.844227 1.699379
12.294344 -35.851749 1.6872928
12.335801 -35.834953 1.7040477
12.337782 -35.794762 1.6894805
12.375051 -35.81171 1.6978426
12.311842 -35.766254 1.6763227
12.330898 -35.765892 1.7062454
12.388298 -35.747921 1.693465
12.433142 -35.742325 1.6951138
12.40484 -35.701389 1.6947057
12.442864 -35.68811 1.6912955
12.410365 -35.674034 1.6965786
12.453085 -35.647324 1.6938591
12.460341 -35.609791 1.6957817
12.482491 -35.585251 1.6958692
12.466 -35.554314 1.6924316
12.488441 -35.555386 1.7028133
12.465881 -35.495659 1.6936227
12.490312 -35.512314 1.7108947
12.465675 -35.454865 1.6944193
12.388225 -35.385212 1.6859407
12.426168 -35.393486 1.6847907
12.459441 -35.407505 1.6963201
12.429923 -35.360935 1.6962736
12.45072 -35.372093 1.7000349
12.342216 -35.276455 1.6949292
12.382998 -35.297943 1.6938713
12.406981 -35.314617 1.6952475
10.590071 -35.128582 1.6926221
12.285915 -35.234653 1.6971682
12.326344 -35.248089 1.6949337
12.374705 -35.249466 1.695359
10.5475 -35.090698 1.6942778
10.585721 -35.092205 1.6952178
12.228195 -35.190266 1.6927722
12.291335 -35.206409 1.6959819
10.590453 -35.024639 1.6966057
10.549217 -34.983467 1.6933461
10.594613 -34.986256 1.695176
10.549938 -34.958134 1.6862069
10.588832 -34.927917 1.6865659
10.552664 -34.884983 1.6862214
10.595737 -34.890781 1.6884829
10.555177 -34.854912 1.6774474
12.281798 -34.531849 1.685783
12.304298 -34.526352 1.7110865
12.290955 -34.494522 1.6818026
12.321233 -34.507751 1.6940153
12.374258 -34.482052 1.6890841
12.412042 -34.4925 1.6886671
12.388173 -34.457905 1.6953787
12.407643 -34.442554 1.6996177
12.401722 -34.40995 1.6786971
12.430154 -34.409683 1.6926312
12.466129 -34.403481 1.7016399
12.435906 -34.350384 1.6901963
12.477772 -34.361881 1.6939701
12.527942 -34.374741 1.7003887
12.49087 -34.302425 1.6884214
12.520798 -34.296284 1.7051867
12.458035 -34.255875 1.6932164
12.4766 -34.25388 1.6940627
12.530876 -34.258568 1.6922951
12.489117 -34.208267 1.6958396
12.533815 -34.219852 1.6981378
12.497044 -34.154716 1.6918271
12.530042 -34.167904 1.6998225
12.461609 -34.10112 1.6886851
12.500665 -34.10873 1.6981795
12.537099 -34.11158 1.6939813
12.463907 -34.047043 1.6930214
12.498228 -34.055447 1.6955814
12.35216 -33.996227 1.697016
12.408657 -34.00214 1.6913731
12.441673 -33.997738 1.6950246
12.300488 -33.943123 1.6920186
12.362432 -33.946636 1.6937715
12.393745 -33.95591 1.6920599
12.44198 -33.974339 1.7038916
12.310349 -33.908836 1.6927605
12.340745 -33.900665 1.694289
12.261016 -35.839897 1.730507
12.289759 -35.845104 1.7466714
12.332351 -35.840641 1.7459456
12.36106 -35.805336 1.7345423
12.384638 -35.808342 1.7486613
12.347934 -35.760414 1.7435405
12.401887 -35.742546 1.7458358
12.439822 -35.743492 1.7475194
12.413697 -35.701473 1.7391899
12.446291 -35.702991 1.7434217
12.477979 -35.684364 1.7597387
12.418797 -35.665886 1.7388836
12.455097 -35.655918 1.7441245
12.481393 -35.658909 1.744259
12.468122 -35.622684 1.744243
12.485221 -35.596088 1.7445744
12.473002 -35.550426 1.7363805
12.498238 -35.555115 1.7495607
12.476579 -35.503609 1.7384522
12.502792 -35.504196 1.7459092
12.477304 -35.456596 1.7430912
12.50434 -35.47768 1.7477225
12.540531 -35.477993 1.7678549
12.422684 -35.391457 1.7274874
12.475205 -35.409634 1.743266
12.428969 -35.362648 1.7417917
12.459151 -35.366829 1.7460335
12.386769 -35.289497 1.7385664
12.415887 -35.305519 1.745479
10.591737 -35.130352 1.7408003
10.616381 -35.129154 1.7240295
12.293859 -35.227631 1.7450504
12.328708 -35.240749 1.7490542
12.37353 -35.255379 1.7449872
10.584507 -35.103752 1.7315797
12.23503 -35.19516 1.7413414
12.269139 -35.193832 1.727107
12.31097 -35.199326 1.7468812
12.239155 -35.165012 1.7441318
10.55614 -35.007927 1.7247114
10.602385 -34.923191 1.7260894
12.273142 -34.537331 1.7553461
12.316236 -34.52343 1.7244664
12.333164 -34.500198 1.740618
12.357864 -34.497528 1.7491823
12.433129 -34.486969 1.7380663
12.395762 -34.464657 1.7343106
12.413662 -34.452675 1.7458442
12.435151 -34.406372 1.7426999
12.478115 -34.401039 1.7460697
12.452174 -34.335781 1.744323
12.485476 -34.352581 1.7448542
12.523735 -34.362759 1.7430118
12.556423 -34.367931 1.7666473
12.496947 -34.30714 1.7365397
12.534516 -34.296547 1.7488347
12.565229 -34.317013 1.768159
12.490133 -34.247547 1.7447132
12.542777 -34.258343 1.745795
12.567286 -34.268738 1.7552803
12.498333 -34.200577 1.7423694
12.546723 -34.216976 1.7447777
12.571053 -34.226631 1.7613796
12.503046 -34.14938 1.7361767
12.539034 -34.15889 1.7485603
12.469182 -34.09639 1.734055
12.499495 -34.100327 1.7421935
12.53908 -34.110413 1.7451453
12.463841 -34.03931 1.737421
12.493346 -34.049725 1.743647
12.528208 -34.053215 1.7458918
12.35856 -33.990562 1.7268554
12.40712 -34.00396 1.7436473
12.453497 -33.992771 1.7435004
12.319516 -33.939346 1.7440552
12.363392 -33.945213 1.7467469
12.410641 -33.956146 1.7372359
12.447143 -33.970119 1.7426746
12.323972 -33.903648 1.7482792
12.346965 -33.89735 1.7436336
12.293456 -35.829521 1.7993376
12.336758 -35.842651 1.7902534
12.358615 -35.82291 1.8067296
12.397988 -35.80014 1.7938287
12.366237 -35.755173 1.7822548
12.403425 -35.746311 1.79249
12.445758 -35.735157 1.7937483
12.472968 -35.736153 1.8194636
12.445946 -35.708092 1.7970356
12.480171 -35.706924 1.7994239
12.452895 -35.664467 1.7964116
12.493136 -35.655716 1.7910053
12.474512 -35.626926 1.7925804
12.489161 -35.616226 1.7983831
12.512191 -35.557354 1.7919832
12.549957 -35.544231 1.797567
12.48417 -35.531364 1.7752097
12.509612 -35.516468 1.7924981
12.538008 -35.530743 1.8001901
12.484989 -35.464249 1.7780612
12.509239 -35.46431 1.7917695
12.544839 -35.472427 1.7999203
12.469692 -35.398647 1.7891575
12.500267 -35.412392 1.7968253
12.427202 -35.358742 1.7902009
12.467608 -35.357777 1.7943773
12.397573 -35.287842 1.7700932
12.423493 -35.296841 1.7931689
12.299371 -35.228191 1.7855114
12.327563 -35.234383 1.7995626
12.379257 -35.247684 1.7931607
12.243004 -35.190571 1.7910949
12.259911 -35.191261 1.8118783
12.31958 -35.202457 1.7924184
12.249261 -35.160603 1.7931516
12.287694 -34.533138 1.7790211
12.316399 -34.543285 1.7966158
12.342569 -34.515572 1.7716243
12.371012 -34.491642 1.7948047
12.446328 -34.48365 1.7721622
12.455929 -34.481312 1.7977825
12.365971 -34.471214 1.8153472
12.433829 -34.445335 1.7941638
12.444988 -34.403179 1.7833835
12.474454 -34.399967 1.7955017
12.511845 -34.394135 1.8079718
12.492768 -34.350964 1.7921188
12.527966 -34.352192 1.7897691
12.568429 -34.364304 1.7983149
12.480651 -34.319683 1.7930748
12.530845 -34.295277 1.7923411
12.588836 -34.310558 1.7917632
12.61038 -34.304577 1.8174953
12.500778 -34.236897 1.7819968
12.533562 -34.249203 1.7952077
12.576894 -34.257668 1.795841
12.505942 -34.224045 1.7951903
12.547528 -34.21027 1.7875329
12.582697 -34.211472 1.7967408
12.508581 -34.152439 1.7918695
12.545409 -34.151611 1.7947574
12.58718 -34.156452 1.7967325
12.493541 -34.098606 1.7883481
12.543672 -34.102108 1.7913643
12.574774 -34.103794 1.8088354
12.468194 -34.030235 1.7700409
12.4993 -34.04623 1.7912648
12.536976 -34.055828 1.7930107
12.413286 -34.000076 1.7871944
12.460004 -33.996174 1.7907459
12.487843 -33.992241 1.7961442
12.532537 -34.030651 1.8094211
12.353861 -33.940205 1.7910243
12.413512 -33.943642 1.8005352
12.453602 -33.970146 1.7958392
12.281579 -33.887749 1.7942368
12.309078 -33.893871 1.7996476
12.353846 -33.89608 1.7984153
12.310276 -35.824265 1.8334914
12.353436 -35.841206 1.8369808
12.367846 -35.844585 1.8601866
12.324148 -35.82048 1.8581207
12.395531 -35.804615 1.8430666
12.426796 -35.797421 1.8468105
12.395817 -35.745419 1.8407722
12.429596 -35.746258 1.8420695
12.479761 -35.733906 1.8372542
12.449861 -35.721687 1.8399636
12.484825 -35.714088 1.8521783
12.461125 -35.655155 1.8440748
12.505239 -35.658833 1.8459662
12.502215 -35.615753 1.8424722
12.526394 -35.558937 1.8403783
12.552326 -35.551819 1.843276
12.520259 -35.514393 1.8386799
12.550467 -35.517982 1.8448725
12.514898 -35.460155 1.8393186
12.550941 -35.467106 1.848175
12.471501 -35.388744 1.8471112
12.513765 -35.411594 1.8459973
12.427544 -35.353756 1.8455652
12.479374 -35.355324 1.8424383
12.501577 -35.363617 1.8562871
12.431613 -35.289528 1.8391783
12.460447 -35.311749 1.8461744
12.331383 -35.228931 1.8379468
12.378618 -35.240101 1.8439319
12.411671 -35.258629 1.8489742
12.45136 -35.277836 1.8654948
12.263113 -35.194885 1.8421241
12.332174 -35.201485 1.8483572
12.410531 -35.225349 1.8503715
12.253328 -35.165249 1.8368032
12.257952 -35.158401 1.8472276
12.331894 -34.535824 1.8258387
12.351301 -34.54504 1.8453386
12.339175 -34.518784 1.8539584
12.386514 -34.491871 1.8396997
12.405197 -34.483662 1.8530096
12.379854 -34.465046 1.8485625
12.428923 -34.455399 1.8385643
12.461135 -34.453362 1.844054
12.471633 -34.405022 1.8409234
12.523623 -34.394501 1.8473272
12.48692 -34.355831 1.8402315
12.529737 -34.354099 1.8382971
12.574605 -34.359093 1.8534088
12.489294 -34.317398 1.8480783
12.530974 -34.31205 1.8439806
12.560791 -34.330956 1.8546956
12.617908 -34.302036 1.8442323
12.551172 -34.261955 1.8427041
12.587024 -34.26392 1.8409356
12.61974 -34.252506 1.864005
12.543442 -34.221325 1.8454515
12.590794 -34.203781 1.8412268
12.621562 -34.209431 1.8457497
12.514467 -34.136398 1.8336759
12.555739 -34.150047 1.8406718
12.589748 -34.152309 1.8494217
12.621386 -34.139465 1.8560514
12.510008 -34.10511 1.8320473
12.55311 -34.103653 1.8460252
12.585313 -34.099171 1.8431909
12.506972 -34.059658 1.8385643
12.539819 -34.057152 1.8447927
12.576269 -34.083366 1.855804
12.41148 -34.007336 1.8381522
12.447206 -33.994415 1.8362366
12.499493 -34.012821 1.8488898
12.541389 -34.025681 1.8459511
12.353011 -33.947346 1.8405608
12.425992 -33.932911 1.840891
12.458989 -33.966034 1.8429834
12.300422 -33.886486 1.8483838
12.358559 -33.896652 1.8412448
12.395199 -33.920692 1.8456717
12.348753 -33.868587 1.8474276
12.365071 -35.833233 1.877076
12.379451 -35.837505 1.8997463
12.347298 -35.813969 1.8996305
12.407293 -35.809521 1.8954152
12.43945 -35.796356 1.8965964
12.413014 -35.754448 1.8806068
12.439624 -35.746616 1.901212
12.454687 -35.721046 1.893173
12.496288 -35.714607 1.8913624
12.465665 -35.659218 1.8931315
12.496507 -35.655983 1.8919702
12.533756 -35.64983 1.9028832
12.514677 -35.612133 1.8925765
12.533532 -35.607979 1.9157511
12.530355 -35.552341 1.8867953
12.553657 -35.554501 1.890402
12.530706 -35.504974 1.8862753
12.558927 -35.522926 1.8937466
12.524148 -35.454861 1.8941343
12.560042 -35.464287 1.8959801
12.484559 -35.385845 1.8936501
12.524719 -35.40934 1.8900766
12.542672 -35.422131 1.9168198
12.437951 -35.343422 1.8949831
12.487921 -35.341679 1.8909674
12.510835 -35.36042 1.8977953
12.439447 -35.292114 1.8857907
12.464832 -35.297665 1.8953753
12.380413 -35.230022 1.8951582
12.427629 -35.262711 1.8961509
12.461846 -35.27507 1.8919308
12.27481 -35.192093 1.8922713
12.33392 -35.209694 1.89183
12.359306 -35.181904 1.8963091
12.416659 -35.218956 1.8918254
12.256856 -35.15897 1.8809018
12.264273 -35.153038 1.8845489
12.378142 -34.53722 1.8931242
12.37154 -34.508732 1.8855827
12.414614 -34.485672 1.8917606
12.394343 -34.459034 1.8806369
12.422482 -34.466785 1.8992461
12.477509 -34.455582 1.8899945
12.487137 -34.412743 1.8899356
12.53076 -34.395081 1.8904952
12.491733 -34.371567 1.8957359
12.538271 -34.355442 1.8945465
12.5732 -34.357494 1.8976252
12.503741 -34.30785 1.8877753
12.532238 -34.313339 1.8953522
12.56885 -34.325771 1.8942957
12.631707 -34.29755 1.8881932
12.54806 -34.279129 1.8926169
12.589043 -34.267826 1.8897322
12.633774 -34.248055 1.8969882
12.557681 -34.209862 1.8907696
12.595763 -34.20005 1.8922045
12.625041 -34.209953 1.8936613
12.564441 -34.135475 1.8711698
12.589922 -34.147415 1.895949
12.549517 -34.109196 1.8865556
12.588611 -34.117626 1.8978528
12.511506 -34.062729 1.891566
12.547841 -34.062511 1.895225
12.583356 -34.07922 1.8987441
12.423513 -34.006878 1.8726439
12.450556 -34.009502 1.8944281
12.508553 -34.008472 1.8912643
12.549895 -34.024445 1.8989828
12.367964 -33.93943 1.8905853
12.432279 -33.92934 1.8688323
12.459804 -33.957561 1.8865907
12.490123 -33.967228 1.9070162
12.314528 -33.886257 1.8948412
12.362198 -33.893303 1.8954604
12.399235 -33.90807 1.8927276
12.43812 -33.92482 1.9076297
12.351249 -33.861275 1.8902482
12.313239 -35.870872 1.9244589
12.32933 -35.867153 1.9489422
12.395257 -35.840946 1.9463112
12.363679 -35.808178 1.9349775
12.388766 -35.819183 1.9509085
12.443299 -35.79744 1.9398506
12.468438 -35.794334 1.9690297
12.449286 -35.750374 1.9422355
12.47365 -35.777287 1.9544818
12.45825 -35.717575 1.936559
12.493425 -35.714268 1.9460198
12.527891 -35.706543 1.9578178
12.506124 -35.659573 1.9408436
12.546045 -35.658707 1.9442316
12.516806 -35.61491 1.9428045
12.54213 -35.618076 1.9449279
12.551757 -35.554684 1.9480857
12.593731 -35.556099 1.9439973
12.562291 -35.519028 1.9410474
12.592037 -35.513077 1.9491487
12.531489 -35.454094 1.9401382
12.559813 -35.457207 1.9471021
12.491854 -35.384304 1.9219251
12.535049 -35.401844 1.9373289
12.548658 -35.410999 1.9503766
12.445744 -35.334759 1.9354613
12.471636 -35.332554 1.9423039
12.51854 -35.359127 1.9417661
12.548735 -35.382824 1.9502684
12.477493 -35.292553 1.9430723
12.506219 -35.326603 1.9531829
12.390062 -35.226852 1.9263442
12.43604 -35.258022 1.9393495
12.467194 -35.270561 1.9486115
12.289298 -35.188625 1.9413053
12.338942 -35.20554 1.9413352
12.372184 -35.201805 1.9473972
