# .PCD v0.7 - Point Cloud Data file format
VERSION 0.7
FIELDS x y z
SIZE 4 4 4
TYPE F F F
COUNT 1 1 1
WIDTH 1560
HEIGHT 1
VIEWPOINT 0 0 0 1 0 0 0
POINTS 1560
DATA ascii
13.33435 -20.958965 3.1393545
13.3901 -21.0047 3.1163816
13.32276 -20.949574 3.1546879
13.870392 -20.965996 3.1333122
13.892897 -20.955647 3.1479151
14.002895 -20.963013 3.1189623
14.034565 -20.963039 3.1101983
14.091949 -20.954216 3.1538
14.231965 -20.973171 3.1164074
14.25766 -20.970015 3.1161523
14.29088 -20.967407 3.1188819
14.026716 -20.930176 3.1205695
14.076169 -20.951263 3.1212893
14.106858 -20.948597 3.1437831
14.153014 -20.935226 3.1226428
14.209765 -20.938879 3.1296062
14.259864 -20.934549 3.1237471
14.312494 -20.933006 3.1283181
14.362748 -20.943846 3.1288364
14.408015 -20.944162 3.1362412
14.456248 -20.943708 3.1483495
14.494557 -20.926111 3.1547747
9.3560724 -23.498968 3.1655359
9.4039373 -23.497356 3.1717107
9.4508715 -23.495197 3.1839936
9.4874296 -23.489614 3.17873
9.4513617 -23.457771 3.1715524
9.4854364 -23.453209 3.1781662
11.011147 -23.489992 3.1826105
11.031233 -23.482473 3.1908119
11.00518 -23.441263 3.1857417
11.056111 -23.441977 3.1908574
11.00771 -23.393215 3.1943769
11.048035 -23.396416 3.1862922
11.080386 -23.389093 3.1660442
11.003092 -23.356478 3.1826718
11.055882 -23.358273 3.1901176
14.064449 -23.506073 3.1736321
14.202991 -23.493441 3.1869128
14.252443 -23.488129 3.187778
14.30059 -23.479322 3.1937544
14.351134 -23.475264 3.2059
14.312344 -23.459919 3.1665225
14.356327 -23.459005 3.1737645
14.406105 -23.45569 3.1797721
14.453071 -23.452789 3.1890402
14.498531 -23.452477 3.2028611
14.532201 -23.467588 3.2092888
14.504433 -23.428045 3.1928353
14.545995 -23.421768 3.2041512
13.459676 -23.295012 3.1764197
13.522347 -23.294485 3.1795824
13.563192 -23.293383 3.1815825
13.607626 -23.289976 3.1826949
13.659631 -23.288441 3.178637
13.720119 -23.287968 3.1683297
13.754481 -23.28763 3.1755552
13.932178 -23.300306 3.1615345
13.95065 -23.299845 3.1614106
12.438313 -23.161127 3.1820436
12.731994 -23.1947 3.1960814
13.57505 -23.269108 3.1617086
13.623051 -23.270237 3.1669381
13.668017 -23.263411 3.1692765
13.716883 -23.259407 3.174401
13.767365 -23.268349 3.1730485
13.815477 -23.271557 3.1789896
13.864223 -23.272739 3.1846917
13.914351 -23.271824 3.1915801
13.964121 -23.274336 3.194906
14.012979 -23.277956 3.1963818
14.062675 -23.279577 3.1962705
14.114973 -23.283562 3.1983571
14.159754 -23.282173 3.2053175
14.191115 -23.292484 3.2078993
12.388006 -23.123577 3.206991
12.431118 -23.141285 3.1793616
12.447853 -23.12137 3.201617
12.686848 -23.16119 3.185919
12.726479 -23.144049 3.1818254
12.758138 -23.143755 3.1821527
13.778283 -23.237156 3.1783636
13.821628 -23.236538 3.1794631
13.870757 -23.238417 3.1782062
13.917813 -23.236376 3.1824651
13.969218 -23.235893 3.1865766
14.019595 -23.233004 3.1889727
14.071113 -23.235287 3.1950223
14.123202 -23.235178 3.188972
14.164731 -23.235954 3.1929524
14.208113 -23.234558 3.1887212
14.266441 -23.228371 3.1925235
14.297068 -23.224613 3.2066326
12.418139 -23.082323 3.1950212
12.457767 -23.094143 3.1881433
12.631091 -23.085749 3.1705594
12.678612 -23.088783 3.1806011
12.723209 -23.097233 3.1926482
12.763454 -23.097738 3.1914511
12.809581 -23.086033 3.1985593
13.0753 -23.123592 3.1709812
12.3975 -23.047426 3.1905332
12.688116 -23.065699 3.1788416
12.732569 -23.049259 3.1831625
12.764977 -23.053646 3.1870282
12.804543 -23.029703 3.174736
12.87632 -23.055914 3.172785
12.639962 -23.008131 3.1833925
12.674842 -23.010397 3.1938484
12.732061 -22.999481 3.1964149
12.784373 -22.995443 3.187228
12.826147 -23.006878 3.1814432
12.864766 -23.011164 3.183635
12.906657 -22.985134 3.1891937
15.335588 -23.141287 3.1641107
15.372716 -23.149899 3.1699064
15.416983 -23.160358 3.1718287
15.468387 -23.165277 3.1869955
15.515828 -23.167562 3.1997721
15.559271 -23.172852 3.2071476
12.700778 -22.959888 3.1794171
12.775863 -22.952688 3.1842546
12.823238 -22.964384 3.1984551
12.871826 -22.968124 3.1809468
12.920933 -22.954626 3.1763163
15.241683 -23.092262 3.1618655
15.282046 -23.099874 3.1703532
15.329818 -23.102953 3.1876094
15.382091 -23.108213 3.1756613
15.426182 -23.113136 3.178719
15.476315 -23.116465 3.1891439
15.527882 -23.115255 3.2004817
15.573933 -23.104488 3.2054825
12.761763 -22.907398 3.195842
12.82587 -22.911325 3.1754377
12.871472 -22.888203 3.1919186
15.390557 -23.063871 3.1644118
15.433657 -23.065805 3.1748402
15.480981 -23.070763 3.1878037
15.522511 -23.070297 3.1962531
15.563982 -23.067719 3.2014308
12.73529 -22.837427 3.1939912
12.792591 -22.838949 3.1930883
12.839227 -22.847116 3.1777132
12.896661 -22.841185 3.1835635
15.332876 -22.986607 3.1620951
15.390146 -23.007143 3.1678104
15.435583 -23.013685 3.1761959
15.48668 -23.0177 3.1886904
15.532576 -23.023611 3.1937559
15.585546 -23.025898 3.1962662
15.62431 -23.021328 3.2024229
12.579813 -22.767054 3.16326
12.710349 -22.776882 3.1923614
12.755077 -22.792412 3.1873524
12.770853 -22.798059 3.1865661
12.841208 -22.821878 3.1983891
12.886355 -22.811617 3.1898468
15.283344 -22.969633 3.1662633
15.338367 -22.976105 3.1779342
15.393565 -22.963978 3.1725528
15.439701 -22.964224 3.1819203
15.489064 -22.97065 3.1933079
15.536252 -22.969246 3.2022641
15.578934 -22.958075 3.2064526
15.655288 -22.996372 3.2027495
12.665853 -22.718445 3.204201
12.70886 -22.757448 3.177542
12.750717 -22.757566 3.17032
12.796729 -22.754288 3.1758184
12.843173 -22.753845 3.1954136
12.874322 -22.760784 3.1721592
15.248901 -22.893759 3.1616313
15.293065 -22.908298 3.1702926
15.343391 -22.916595 3.1779349
15.389678 -22.914484 3.1724176
15.438999 -22.917629 3.1794152
15.48735 -22.917311 3.1909127
15.534471 -22.914309 3.1958799
15.579522 -22.908886 3.199614
12.704672 -22.715082 3.1988761
12.762964 -22.699055 3.1798112
12.797165 -22.694117 3.1879327
15.357662 -22.847385 3.1650424
15.39845 -22.862848 3.1680326
15.441566 -22.861334 3.177449
15.491329 -22.863344 3.1880813
15.533915 -22.865011 3.1992335
15.603175 -22.88221 3.1915994
15.639608 -22.889584 3.1975164
15.684212 -22.880213 3.2040334
12.654295 -22.638012 3.185776
12.712016 -22.642448 3.1769142
12.741136 -22.647982 3.186229
12.788535 -22.656538 3.2032607
15.270959 -22.807722 3.1642251
15.306615 -22.811029 3.175822
15.359825 -22.807526 3.1801248
15.401371 -22.813452 3.1724634
15.449476 -22.813976 3.1812804
15.496173 -22.816053 3.1950951
15.542556 -22.818237 3.2036192
15.59457 -22.841242 3.2047682
12.654669 -22.613995 3.1796205
12.681927 -22.617565 3.1775513
13.190607 -22.650003 3.1610117
15.311721 -22.741066 3.1642795
15.350849 -22.747183 3.1718006
15.401125 -22.753752 3.1705179
15.448829 -22.757296 3.1828854
15.497093 -22.769567 3.1911826
15.543594 -22.776394 3.1951239
15.59684 -22.775028 3.197942
15.646522 -22.760025 3.2084501
15.247426 -22.702951 3.1690571
15.294762 -22.708641 3.1851113
15.356963 -22.713207 3.1797674
15.407454 -22.712702 3.1714165
15.456849 -22.713816 3.1845729
15.504631 -22.718283 3.1961937
15.549155 -22.719646 3.1960645
15.600658 -22.710964 3.1903486
15.645415 -22.71073 3.207552
15.36907 -22.653049 3.166671
15.410769 -22.659098 3.1724243
15.451734 -22.664518 3.1807764
15.500521 -22.66934 3.1927786
15.549771 -22.670416 3.1947706
15.603847 -22.670465 3.1923618
15.657802 -22.685194 3.2024639
15.267814 -22.610697 3.1702478
15.314856 -22.617062 3.1847816
15.366147 -22.618637 3.1735046
15.405987 -22.615028 3.1712406
15.459394 -22.618597 3.1836157
15.505036 -22.617323 3.1944869
15.55228 -22.615555 3.2014208
15.607352 -22.628992 3.1966023
15.664087 -22.637571 3.20012
15.312469 -22.542309 3.1675272
15.368992 -22.557081 3.1697683
15.412979 -22.560595 3.1725409
15.459193 -22.560221 3.1836922
15.509418 -22.568836 3.1969125
15.555243 -22.574215 3.2014377
15.592543 -22.587162 3.2036278
15.264928 -22.490044 3.1652436
15.311871 -22.497 3.1798913
15.365415 -22.517612 3.1714623
15.415499 -22.510851 3.1752877
15.464694 -22.511576 3.184865
15.508802 -22.519226 3.1940145
15.555686 -22.523041 3.2007854
15.608552 -22.503355 3.1871998
15.33554 -22.446861 3.1635869
15.373906 -22.450294 3.1717675
15.421627 -22.460232 3.174798
15.465587 -22.463614 3.1845083
15.514984 -22.470533 3.1914155
15.56324 -22.474058 3.2002089
15.626458 -22.472439 3.1865942
15.668639 -22.47333 3.1937644
15.712379 -22.470718 3.2024586
15.2836 -22.393692 3.1721504
15.331508 -22.400957 3.1887989
15.383029 -22.411716 3.1772628
15.42467 -22.413029 3.168824
15.473788 -22.414257 3.1816688
15.520654 -22.417532 3.1954851
15.556639 -22.422804 3.2046959
15.298553 -22.351023 3.1655037
15.334803 -22.35305 3.1768913
15.381063 -22.352324 3.1692092
15.427835 -22.359064 3.1744394
15.472729 -22.366854 3.1814966
15.522135 -22.371119 3.1953592
15.56943 -22.373394 3.2036242
15.616155 -22.353603 3.2095709
15.391997 -22.310488 3.164845
15.433222 -22.314003 3.1734047
15.480642 -22.320211 3.186353
15.528532 -22.317354 3.1987813
15.569718 -22.313778 3.1992145
15.604838 -22.316053 3.208478
15.235496 -22.253798 3.1652498
15.281673 -22.257767 3.1701057
15.334353 -22.258692 3.1826432
15.384632 -22.257021 3.1747048
15.431302 -22.260874 3.1751928
15.480182 -22.261562 3.1861615
15.527368 -22.268959 3.1941059
15.574111 -22.27059 3.1933897
15.623738 -22.259501 3.2007992
15.393367 -22.213316 3.1678994
15.437988 -22.215174 3.1726203
15.485607 -22.218531 3.1878862
15.533486 -22.220772 3.1963134
15.571983 -22.220953 3.206166
15.34092 -22.140696 3.16873
15.389454 -22.156502 3.1675291
15.437889 -22.161921 3.1760702
15.485626 -22.166132 3.1880891
15.530331 -22.164062 3.1981385
15.575944 -22.172186 3.2022667
15.628775 -22.17989 3.202867
15.247775 -22.085649 3.170053
15.292638 -22.089743 3.1835966
15.346297 -22.097891 3.1824012
15.395089 -22.107351 3.1738703
15.443835 -22.111296 3.1766095
15.488934 -22.115309 3.1858158
15.53617 -22.112661 3.1970601
15.574724 -22.112724 3.2045927
12.660344 -21.886036 3.1661913
12.705897 -21.900007 3.1824501
12.74078 -21.880543 3.1841614
12.791481 -21.890249 3.1930432
15.346532 -22.061415 3.1643929
15.399943 -22.058348 3.1697309
15.443366 -22.060928 3.175967
15.494357 -22.067583 3.1893256
15.53983 -22.070103 3.1989465
15.590995 -22.076597 3.196012
15.642134 -22.063272 3.1821611
12.753462 -21.838131 3.1779151
12.797023 -21.848377 3.1863496
12.860777 -21.839773 3.1664553
15.310102 -21.994789 3.1681795
15.352833 -21.995792 3.1711311
15.398603 -22.009321 3.1703527
15.444665 -22.014957 3.1771023
15.492997 -22.019606 3.1878028
15.539735 -22.020445 3.2014222
15.697223 -22.048742 3.2001867
12.756304 -21.797949 3.1899662
12.802413 -21.798065 3.1781619
12.848355 -21.795774 3.185617
12.906274 -21.783213 3.1767356
15.370628 -21.955315 3.1660619
15.40513 -21.961891 3.1691463
15.449333 -21.965147 3.178452
15.496693 -21.966969 3.1911957
15.543768 -21.973785 3.192903
15.597589 -21.973797 3.1969953
15.634787 -21.956381 3.1985877
12.779163 -21.724516 3.1797125
12.808985 -21.754629 3.1731896
12.853559 -21.762619 3.1697764
12.889725 -21.746468 3.1870379
15.311925 -21.90523 3.1690938
15.357951 -21.906307 3.1689994
15.404298 -21.908819 3.1716375
15.452308 -21.914856 3.1815302
15.500523 -21.913748 3.1937642
15.545801 -21.917757 3.1996017
15.584537 -21.913033 3.2036974
15.662561 -21.949381 3.2077131
12.768457 -21.715021 3.1616063
12.803583 -21.717543 3.1743922
12.86258 -21.715708 3.1784782
12.885288 -21.726717 3.2049906
15.313275 -21.83448 3.1625459
15.36313 -21.857491 3.1675808
15.405219 -21.858139 3.1718976
15.45455 -21.861814 3.1842067
15.504483 -21.862879 3.1938858
15.548862 -21.867516 3.1885509
15.604372 -21.872185 3.1947408
15.646626 -21.855013 3.1958725
12.769162 -21.633911 3.1623135
12.812226 -21.646103 3.1819901
12.864073 -21.643612 3.1861093
12.922454 -21.668207 3.1809869
15.366164 -21.795248 3.1631279
15.410014 -21.807653 3.1712911
15.456198 -21.812141 3.1808808
15.504467 -21.812717 3.1941645
15.543645 -21.823946 3.2024107
15.594069 -21.838253 3.2076035
15.687593 -21.845074 3.2085092
12.783074 -21.581665 3.1758344
12.82251 -21.601 3.1797214
12.865521 -21.599958 3.1782293
12.909094 -21.60272 3.185034
15.321171 -21.733932 3.1681609
15.365483 -21.75371 3.171524
15.416657 -21.757027 3.173198
15.46159 -21.762981 3.1840534
15.508001 -21.766201 3.1927731
15.551825 -21.76889 3.1970835
15.588921 -21.77902 3.2044847
9.7397108 -21.337276 3.1891971
9.7656202 -21.339294 3.1741626
10.081182 -21.373234 3.1983237
12.382545 -21.516897 3.2071154
12.678499 -21.540201 3.1986334
12.719645 -21.554886 3.1930137
12.768106 -21.55695 3.1811676
12.817057 -21.554731 3.1787927
12.861705 -21.555704 3.1810586
15.328831 -21.694571 3.1639078
15.375798 -21.714207 3.1702442
15.42007 -21.710865 3.1751084
15.464469 -21.714411 3.1830223
15.512951 -21.716894 3.1907578
15.557991 -21.716913 3.197706
15.61326 -21.721287 3.2001278
9.6957903 -21.301992 3.1712744
9.7332096 -21.313419 3.179822
9.7704926 -21.313738 3.1927691
9.824667 -21.313015 3.1859963
9.883441 -21.317661 3.2017543
9.9285908 -21.328682 3.1961582
9.9691172 -21.324858 3.2093563
10.074526 -21.329052 3.1890938
10.126156 -21.335344 3.1992872
11.092799 -21.392853 3.1775284
12.389185 -21.490093 3.1766007
12.444875 -21.490143 3.1919641
12.669055 -21.476196 3.1686475
12.714561 -21.484035 3.1794665
12.770646 -21.4788 3.1851361
12.818295 -21.489742 3.1881204
12.866737 -21.504541 3.1850109
12.907297 -21.525829 3.1974792
15.270765 -21.627893 3.1632597
15.304858 -21.628738 3.1734517
15.374451 -21.660986 3.1648142
15.420135 -21.658831 3.1701367
15.469195 -21.66099 3.1840932
15.517765 -21.663357 3.1965396
15.561843 -21.667414 3.1993008
15.614202 -21.675068 3.1959531
15.653305 -21.691677 3.2045832
9.6981525 -21.24403 3.1795542
9.724577 -21.264639 3.1835566
9.776309 -21.267174 3.1972222
9.8391819 -21.272032 3.1826806
9.8900738 -21.277321 3.1992843
9.9360275 -21.261072 3.2004399
9.9774351 -21.252882 3.2102842
10.039568 -21.27533 3.1858516
10.08476 -21.278908 3.2021701
10.130713 -21.302958 3.1894424
11.07915 -21.334293 3.1766839
11.125788 -21.347889 3.185148
11.163927 -21.356291 3.1784444
12.435577 -21.42477 3.1837037
12.476013 -21.43103 3.1923034
12.673767 -21.453856 3.1789594
12.727639 -21.450373 3.1802261
12.77857 -21.443583 3.1855109
12.81881 -21.45487 3.1939049
15.338447 -21.629141 3.1809733
15.374446 -21.608837 3.1724443
15.425316 -21.610731 3.176122
15.471137 -21.613636 3.1833355
15.519021 -21.618748 3.1922984
15.563634 -21.623585 3.1949611
15.626611 -21.624081 3.199301
15.665323 -21.604067 3.2092605
9.6554041 -21.22238 3.1686244
9.6919832 -21.223381 3.178225
9.7283888 -21.20616 3.1772919
9.7758703 -21.210493 3.182436
9.8304167 -21.222025 3.1881807
9.8805428 -21.219381 3.2010422
9.9295893 -21.223957 3.2042794
10.031532 -21.231115 3.1936753
11.056602 -21.267092 3.1832194
11.088686 -21.292301 3.1785412
11.118657 -21.305824 3.1982379
12.379859 -21.380629 3.1927438
12.427724 -21.397234 3.1842768
12.666933 -21.37908 3.1868978
12.734528 -21.386353 3.184392
12.769309 -21.402842 3.1851826
12.83281 -21.414597 3.1756201
15.381623 -21.54788 3.164289
15.423712 -21.557283 3.1687257
15.470248 -21.55876 3.18117
15.515936 -21.562151 3.1911192
15.561294 -21.570538 3.1993828
15.615163 -21.583763 3.1891465
15.655875 -21.573381 3.2020185
9.6908541 -21.182531 3.1715276
9.734067 -21.180365 3.1821976
9.7769032 -21.166592 3.1903832
9.8321218 -21.158562 3.1899822
9.8888235 -21.151739 3.1990094
9.9487867 -21.158884 3.2087152
11.044611 -21.220276 3.2055621
11.084838 -21.239176 3.1835339
11.128509 -21.258675 3.1832106
11.159276 -21.260933 3.2012255
12.705352 -21.351528 3.1943593
12.744562 -21.358986 3.1676102
12.767946 -21.371227 3.1740613
15.386115 -21.508726 3.1651833
15.431768 -21.510887 3.1728432
15.478519 -21.512875 3.1848063
15.523723 -21.519871 3.1914437
15.567563 -21.522791 3.1955709
15.616425 -21.51544 3.2029548
9.8189516 -21.13777 3.1685658
9.9355955 -21.132992 3.197264
10.000381 -21.122263 3.1986668
10.027772 -21.104385 3.2024946
11.008999 -21.201365 3.1809483
11.037577 -21.194963 3.1732564
11.082664 -21.197767 3.1836278
15.388683 -21.459646 3.1646705
15.42794 -21.460598 3.1728714
15.47789 -21.459705 3.187047
15.522783 -21.466263 3.2008634
15.581253 -21.471432 3.2038438
11.04565 -21.139036 3.187978
11.079083 -21.149649 3.1806233
15.389254 -21.405922 3.1660185
15.433858 -21.405167 3.172838
15.481897 -21.41424 3.1847496
15.529572 -21.420794 3.1918058
15.570973 -21.419228 3.1990685
15.619911 -21.409281 3.1975813
10.996753 -21.098328 3.1911652
11.056868 -21.087593 3.1800258
11.08899 -21.094387 3.1963491
11.122695 -21.100283 3.1960104
13.741151 -21.260717 3.1628578
13.791669 -21.255201 3.1687882
13.842546 -21.249039 3.1706121
13.893241 -21.243824 3.1762099
14.048421 -21.252451 3.1890259
15.384455 -21.362101 3.1648715
15.435385 -21.364862 3.1734276
15.48468 -21.364069 3.1847548
15.530537 -21.365509 3.1979821
15.571962 -21.372524 3.2052112
15.643261 -21.39278 3.2010629
15.668766 -21.388313 3.2064524
11.04407 -21.05113 3.1840656
11.082048 -21.066923 3.2010078
13.714208 -21.207518 3.1610122
13.744289 -21.204077 3.165596
13.7907 -21.201393 3.1720717
13.84635 -21.205048 3.1758275
13.896732 -21.19875 3.1794994
13.942975 -21.217461 3.1763034
13.991744 -21.235085 3.1911166
14.042521 -21.230141 3.1951096
14.090285 -21.239485 3.1974247
14.133538 -21.236816 3.2019539
14.189389 -21.237944 3.2019653
14.229371 -21.2341 3.208127
15.352765 -21.29044 3.1626565
15.395537 -21.302931 3.1670768
15.441067 -21.305849 3.1763122
15.49011 -21.315475 3.1880178
15.537538 -21.325354 3.1890602
15.583346 -21.327209 3.1930807
15.626365 -21.319576 3.1941168
15.669445 -21.305023 3.1940691
13.810001 -21.177698 3.1679873
13.846058 -21.166218 3.1670933
13.896182 -21.165312 3.1754594
13.946388 -21.170118 3.1717188
13.994767 -21.176849 3.1782358
14.044435 -21.173332 3.1815155
14.092687 -21.171923 3.1885309
14.140355 -21.171791 3.1900709
14.196352 -21.173521 3.19396
14.239711 -21.170187 3.2049611
14.38648 -21.17635 3.2022641
15.400961 -21.266035 3.1639271
15.440201 -21.272461 3.1744812
15.490258 -21.275629 3.1879413
15.534558 -21.270767 3.1976895
15.697618 -21.296444 3.2050858
13.964137 -21.143297 3.1728959
14.006339 -21.143303 3.1769037
14.046556 -21.140396 3.1819048
14.092655 -21.138056 3.1884875
14.147592 -21.143017 3.1943481
14.191216 -21.147951 3.198889
14.23545 -21.149744 3.2071157
15.564393 -21.233393 3.1638343
15.590786 -21.240055 3.1943791
15.630159 -21.232594 3.2062757
12.372891 -20.996292 3.1894701
12.390564 -20.991184 3.2038882
13.043023 -20.990036 3.1717751
13.209596 -21.004875 3.1719115
13.238628 -21.002911 3.1852691
15.700414 -21.194931 3.2075896
13.068455 -20.968645 3.1738036
13.102854 -20.966627 3.1847279
13.147118 -20.977221 3.1913903
13.207181 -20.990496 3.1913655
13.269437 -20.988289 3.19346
13.298396 -20.998535 3.2089903
13.358003 -20.952715 3.1813331
13.397273 -20.944736 3.2012541
13.914881 -20.958258 3.1717553
13.944587 -20.95784 3.1739492
14.405881 -20.973522 3.1634398
14.227089 -20.920708 3.1722372
14.256771 -20.918249 3.1850042
14.312287 -20.934265 3.1744111
14.363376 -20.939247 3.19859
14.417721 -20.946209 3.1683977
14.461357 -20.946266 3.1734297
14.507454 -20.948702 3.1814742
14.556191 -20.944021 3.1915283
14.597764 -20.935345 3.2002177
14.508899 -20.921354 3.1870914
14.565881 -20.917892 3.1904507
14.608789 -20.923103 3.2035069
14.640989 -20.929935 3.2056293
9.8608198 -23.487633 3.2390556
9.8991957 -23.478539 3.251045
9.9495745 -23.45612 3.2494893
10.005464 -23.456825 3.2296529
9.9526558 -23.441589 3.2415953
9.9999819 -23.433945 3.2380955
10.048753 -23.427694 3.2426395
10.07316 -23.452944 3.2606153
11.017569 -23.481838 3.2381589
11.037343 -23.48424 3.2375684
10.024606 -23.393488 3.2232845
10.052612 -23.391979 3.2433603
11.011248 -23.442738 3.2351065
11.037787 -23.453133 3.2399714
11.009986 -23.399683 3.24175
11.057025 -23.40093 3.2385859
11.079006 -23.392376 3.2537303
13.059098 -23.514206 3.2210999
13.103889 -23.514614 3.228442
13.148157 -23.515015 3.2381625
13.200915 -23.516006 3.2366092
11.021388 -23.360847 3.2320797
13.213664 -23.502401 3.2523766
13.258339 -23.502235 3.257653
13.306136 -23.505487 3.2545333
13.352462 -23.50771 3.2543807
13.383876 -23.506546 3.260798
14.266769 -23.481398 3.2266853
14.303839 -23.494406 3.2189298
14.354091 -23.486181 3.2281857
14.401459 -23.48476 3.2438393
14.447664 -23.486135 3.2579408
14.210533 -23.459078 3.2212493
14.251917 -23.458849 3.217097
14.303162 -23.456812 3.2159281
14.354748 -23.455408 3.2123518
14.407401 -23.466331 3.2233634
14.455013 -23.457376 3.2229187
14.50888 -23.452707 3.2277334
14.555616 -23.449802 3.233881
14.603242 -23.45261 3.2390118
14.643821 -23.451271 3.2549522
14.572071 -23.43643 3.2285697
14.605284 -23.434746 3.2328618
14.650126 -23.432453 3.2445211
14.685966 -23.424654 3.2291918
13.626698 -23.30228 3.2158091
13.656562 -23.294186 3.2214584
12.456117 -23.159698 3.2446547
12.717544 -23.19812 3.2498839
13.712743 -23.279642 3.2228673
13.762479 -23.276258 3.2353628
13.813738 -23.273708 3.2439761
13.866116 -23.272861 3.2454746
13.917931 -23.270155 3.2533445
13.974584 -23.263138 3.2421758
14.018394 -23.264435 3.2307863
14.070313 -23.267691 3.2132859
14.118251 -23.266926 3.2197797
14.167295 -23.27034 3.2218673
14.217453 -23.277168 3.2238145
14.265031 -23.281855 3.2316084
14.309294 -23.286684 3.2499535
12.387028 -23.142801 3.2400696
12.416469 -23.125526 3.2362289
12.459009 -23.134727 3.2409544
12.686873 -23.164059 3.2194438
12.722499 -23.150602 3.2362859
12.764233 -23.151237 3.240788
12.803031 -23.160391 3.2559309
14.024916 -23.250813 3.2154891
14.065554 -23.248919 3.2183182
14.115023 -23.250696 3.216392
14.173736 -23.247307 3.2240143
14.218757 -23.241758 3.2303164
14.26546 -23.24988 3.243685
14.317023 -23.247543 3.2457888
14.353305 -23.228163 3.2453799
12.393797 -23.088428 3.245003
12.431486 -23.086004 3.2255671
12.466018 -23.084675 3.2436991
12.669608 -23.0919 3.2233827
12.729527 -23.096668 3.2420506
12.768413 -23.100872 3.242506
12.819047 -23.092117 3.241262
14.238578 -23.212564 3.2249634
14.271287 -23.212036 3.2427297
14.315727 -23.20933 3.2458713
14.37074 -23.218451 3.2430558
14.41533 -23.206676 3.2517459
12.398309 -23.032776 3.2284184
12.411945 -23.037748 3.241056
12.456284 -23.05579 3.2265122
12.673186 -23.042244 3.2388933
12.718175 -23.047443 3.2321877
12.769879 -23.05735 3.2323189
12.811758 -23.045135 3.2401342
12.626126 -22.995102 3.2436743
12.684739 -22.999786 3.2362387
12.732525 -23.002216 3.2327838
12.774833 -22.980631 3.2392423
12.833652 -23.028946 3.2162929
12.869418 -22.98562 3.2190015
15.530273 -23.157122 3.2122538
15.576092 -23.161833 3.2265646
15.621605 -23.167349 3.2379346
15.679322 -23.17388 3.2494187
15.718973 -23.17841 3.2570598
15.762899 -23.185102 3.254689
12.64617 -22.962 3.2311258
12.675707 -22.961445 3.2389479
12.732063 -22.967186 3.250375
12.785456 -22.9692 3.2268345
12.810398 -22.964304 3.2500176
12.877092 -22.948647 3.2440288
15.438309 -23.10936 3.2176881
15.480393 -23.11692 3.2334061
15.529008 -23.119726 3.2298434
15.576589 -23.121439 3.2301617
15.626613 -23.122095 3.2403111
15.678753 -23.125914 3.2502367
15.73097 -23.131248 3.2504385
15.778342 -23.121653 3.2416689
15.819565 -23.115965 3.2518029
12.804879 -22.89691 3.2368989
12.828802 -22.896347 3.2327859
12.882911 -22.88975 3.2417605
12.912921 -22.897943 3.2426229
15.504467 -23.081831 3.2117748
15.546922 -23.074467 3.2163408
15.586145 -23.077517 3.2230699
15.630853 -23.07835 3.2363949
15.677235 -23.079712 3.2457299
15.727211 -23.079065 3.2512443
15.762286 -23.060282 3.2594028
12.736995 -22.844305 3.2302773
12.773881 -22.842285 3.2282226
12.844705 -22.842421 3.2523251
12.902688 -22.859644 3.2411246
15.546364 -23.0161 3.2140515
15.583753 -23.020988 3.222522
15.634753 -23.025936 3.232892
15.680223 -23.025911 3.2450762
15.725797 -23.031918 3.2523122
15.774979 -23.026243 3.2567365
12.701045 -22.812014 3.2539477
12.742701 -22.821123 3.2269459
12.795982 -22.812414 3.2317281
12.843254 -22.813089 3.2375116
12.883562 -22.804211 3.2446821
15.440135 -22.983135 3.2144496
15.490504 -22.976219 3.2213538
15.541183 -22.972166 3.2263215
15.586702 -22.972717 3.2253246
15.634099 -22.972733 3.2375796
15.679603 -22.976196 3.2479398
15.726336 -22.987471 3.2371941
15.777285 -22.981026 3.2468917
12.687377 -22.745741 3.2322466
12.752129 -22.755569 3.2319312
12.803768 -22.755487 3.2345722
12.843474 -22.758186 3.2408054
12.871415 -22.763069 3.2246981
15.393997 -22.906462 3.2117343
15.430015 -22.909185 3.2209945
15.493582 -22.922245 3.2255249
15.541596 -22.918692 3.2229731
15.589985 -22.924488 3.2292461
15.642836 -22.926477 3.2391803
15.68917 -22.933931 3.2491894
15.730421 -22.939863 3.2567666
15.797025 -22.956085 3.2479532
15.826442 -22.948397 3.2550323
12.708401 -22.707619 3.2310894
12.762088 -22.691534 3.2305849
12.793474 -22.693541 3.2309802
12.844103 -22.716951 3.2250283
15.509694 -22.873228 3.2161527
15.553326 -22.869383 3.2181141
15.594234 -22.875463 3.228761
15.644857 -22.882952 3.2403784
15.692131 -22.887951 3.2483783
15.738588 -22.873947 3.2374907
15.774975 -22.872477 3.2462616
12.665814 -22.634584 3.2368963
12.707344 -22.639624 3.235945
12.754746 -22.64287 3.2359657
12.799097 -22.674429 3.238838
15.453409 -22.825285 3.2231121
15.511621 -22.82535 3.2263694
15.552713 -22.822969 3.2199731
15.597836 -22.822552 3.2272546
15.643877 -22.826344 3.2391102
15.687427 -22.828339 3.2502232
15.738489 -22.819292 3.2518849
15.792921 -22.83967 3.2509553
15.853536 -22.846956 3.2545528
12.664809 -22.610847 3.2553079
12.690315 -22.612492 3.2363851
12.728575 -22.61808 3.257781
15.502479 -22.750717 3.2156298
15.553133 -22.765574 3.222034
15.596058 -22.773996 3.2278347
15.646333 -22.776953 3.2397573
15.693952 -22.779234 3.2510617
15.737413 -22.760136 3.2489293
15.391904 -22.720337 3.2161531
15.440804 -22.726101 3.2301071
15.508731 -22.724072 3.2267425
15.554615 -22.722448 3.222017
15.602275 -22.723167 3.2299156
15.652072 -22.728256 3.2427955
15.695457 -22.730877 3.2497425
15.752408 -22.740063 3.2466652
15.790181 -22.718931 3.255441
15.516747 -22.655439 3.2371154
15.561562 -22.676918 3.2200694
15.607619 -22.674622 3.228936
15.655111 -22.680258 3.2431333
15.703151 -22.680746 3.2459941
15.755094 -22.679354 3.2369332
15.797724 -22.690701 3.2534163
15.411775 -22.630667 3.2152123
15.461862 -22.638157 3.2322996
15.517989 -22.629524 3.2126012
15.55882 -22.623949 3.221875
15.610232 -22.626009 3.2347324
15.657587 -22.630388 3.2472985
15.700767 -22.634794 3.2475588
15.748274 -22.628645 3.244314
15.797229 -22.652668 3.2443302
15.839619 -22.6427 3.2567029
15.508476 -22.546787 3.2178595
15.564154 -22.56543 3.2231076
15.608312 -22.573523 3.2297299
15.658282 -22.576717 3.2407186
15.707403 -22.57819 3.2480109
15.760929 -22.564516 3.250874
15.80687 -22.597328 3.2460904
15.85034 -22.585518 3.2582269
15.421702 -22.514235 3.2166517
15.459491 -22.520212 3.2287378
15.520105 -22.519373 3.2227249
15.56403 -22.520582 3.222404
15.614415 -22.523294 3.2344635
15.662441 -22.523745 3.2442544
15.7082 -22.535284 3.2539277
15.751618 -22.554726 3.2541864
15.519946 -22.461054 3.2162716
15.572118 -22.468857 3.2248714
15.615307 -22.469528 3.2288766
15.664798 -22.476147 3.2432892
15.711841 -22.475359 3.2452352
15.753899 -22.487564 3.255039
15.428226 -22.415092 3.2176433
15.482268 -22.427822 3.2274661
15.53003 -22.425043 3.2300587
15.579175 -22.426037 3.2215307
15.619921 -22.423813 3.2306902
15.670053 -22.430069 3.2426593
15.715072 -22.431479 3.2492416
15.76142 -22.444313 3.2378271
15.815718 -22.43474 3.2427061
15.867773 -22.428741 3.2460845
15.482526 -22.361523 3.2211566
15.537113 -22.358583 3.2320094
15.577727 -22.373627 3.2201803
15.624928 -22.371815 3.2305422
15.6749 -22.377893 3.2458739
15.71885 -22.380451 3.2542129
15.533621 -22.335793 3.2136605
15.579284 -22.328705 3.2216222
15.629221 -22.326147 3.2328014
15.675997 -22.329975 3.2433274
15.721771 -22.329468 3.2517712
15.762295 -22.334663 3.255192
15.401554 -22.273975 3.2170169
15.438878 -22.278912 3.2296271
15.487803 -22.278837 3.2323925
15.541509 -22.27206 3.226259
15.586721 -22.274042 3.223465
15.629795 -22.268223 3.2326844
15.674777 -22.272442 3.2448795
15.715145 -22.275761 3.254272
15.763851 -22.284004 3.2590711
15.529232 -22.234272 3.2174337
15.5844 -22.226835 3.2213411
15.631828 -22.225082 3.2326245
15.683744 -22.227718 3.2416298
15.733887 -22.229023 3.2444816
15.778989 -22.22451 3.2486029
15.809342 -22.223431 3.2534444
15.50032 -22.15489 3.2157304
15.543797 -22.163406 3.2176514
15.589781 -22.166264 3.2247579
15.635373 -22.171009 3.234576
15.683612 -22.174562 3.2461905
15.724689 -22.176186 3.2507963
12.69805 -21.937643 3.2410114
15.398477 -22.099442 3.2133777
15.435804 -22.103239 3.2250462
15.496483 -22.106524 3.2244442
15.545649 -22.112156 3.2237577
15.589976 -22.11908 3.2245545
15.635829 -22.126047 3.2366133
15.684363 -22.128515 3.2467077
15.734071 -22.134251 3.2534325
15.783853 -22.138062 3.2529514
12.706474 -21.908329 3.2264924
12.744741 -21.887686 3.243808
15.492809 -22.05378 3.2131562
15.550075 -22.061985 3.2179842
15.593449 -22.068901 3.224961
15.642448 -22.074831 3.2351251
15.692545 -22.078436 3.2475412
15.737546 -22.082508 3.2536564
15.771762 -22.067005 3.2553253
12.711726 -21.840788 3.2391579
12.757876 -21.846972 3.2449763
12.794973 -21.848492 3.2372723
15.454614 -22.007357 3.2154813
15.4991 -22.008116 3.2227383
15.548641 -22.020205 3.2230141
15.590935 -22.02346 3.2230153
15.641782 -22.024719 3.2372286
15.69152 -22.025997 3.248946
15.742674 -22.033611 3.2366202
15.789635 -22.022898 3.2443824
15.824179 -22.015707 3.2385697
12.73111 -21.81208 3.225831
12.806897 -21.799852 3.2369442
12.840282 -21.806063 3.2386158
15.521974 -21.953215 3.2172687
15.555054 -21.969975 3.2177536
15.601185 -21.97368 3.2246935
15.647942 -21.971626 3.2352216
15.695816 -21.976759 3.2494824
15.738276 -21.992529 3.2592747
15.853963 -22.007587 3.248244
15.883932 -21.999475 3.257674
12.778408 -21.72621 3.2264767
12.795093 -21.75844 3.2239423
12.851912 -21.750162 3.2333498
12.894864 -21.737368 3.2411511
15.468968 -21.914686 3.2144191
15.510298 -21.917629 3.2188897
15.556874 -21.917456 3.2214921
15.598349 -21.923872 3.229954
15.647886 -21.927383 3.2432172
15.702909 -21.931866 3.246161
15.75087 -21.93321 3.2459841
15.789639 -21.93301 3.2567151
12.817307 -21.715965 3.2304235
12.902376 -21.723354 3.2302656
15.508566 -21.855297 3.2161605
15.55531 -21.866074 3.2206569
15.605587 -21.872616 3.232028
15.654406 -21.878086 3.2400107
15.698166 -21.880432 3.2498469
15.742089 -21.87302 3.2541947
12.865814 -21.648708 3.2403662
15.512978 -21.800138 3.2144964
15.562622 -21.817701 3.2182693
15.607725 -21.821482 3.2298918
15.658025 -21.823574 3.2426698
15.704009 -21.826649 3.2487974
15.754767 -21.828995 3.2450848
15.801364 -21.81572 3.2470779
12.764606 -21.578064 3.2340782
12.817599 -21.582821 3.239924
12.862152 -21.598877 3.2370763
12.919642 -21.604769 3.2338381
15.480744 -21.741531 3.2161021
15.522408 -21.755495 3.221401
15.564545 -21.768688 3.2239537
15.609527 -21.771933 3.2281721
15.656538 -21.771358 3.2394578
15.704428 -21.770277 3.2497261
15.830061 -21.808844 3.2549553
10.114607 -21.37487 3.2265174
10.151205 -21.366165 3.2442908
12.384498 -21.505838 3.242331
12.417296 -21.512089 3.2542682
12.680724 -21.544781 3.2548223
12.720265 -21.54611 3.239794
12.77348 -21.554951 3.2343321
12.824346 -21.552271 3.23458
12.86161 -21.553822 3.2370155
12.910084 -21.548616 3.2399011
15.481705 -21.737211 3.2132351
15.526993 -21.722845 3.2176886
15.569905 -21.719177 3.2220323
15.612957 -21.721277 3.2338657
15.662668 -21.72398 3.2395809
15.713117 -21.727608 3.2536392
15.751855 -21.752134 3.2546153
9.7996292 -21.306786 3.217
9.8318863 -21.315145 3.2244425
9.879178 -21.310305 3.2326458
9.928093 -21.315475 3.2272408
9.9846573 -21.309158 3.2410026
10.029262 -21.319252 3.2275567
10.083909 -21.336258 3.2369466
10.131668 -21.35005 3.2420046
10.166751 -21.329115 3.2301252
12.383329 -21.475491 3.223135
12.41361 -21.476141 3.2397265
12.455339 -21.489161 3.2216144
12.521013 -21.475729 3.2327018
12.778362 -21.487226 3.2438803
12.817038 -21.47965 3.2378531
12.879932 -21.512005 3.2430358
15.527583 -21.669292 3.2139976
15.572575 -21.667322 3.2221129
15.617311 -21.674437 3.2308674
15.665844 -21.677984 3.2423661
15.712613 -21.680597 3.2478614
15.756033 -21.680204 3.2483654
15.80179 -21.675699 3.2544
9.7441301 -21.245281 3.2209249
9.796278 -21.262268 3.224714
9.8476372 -21.268724 3.2295954
9.8971481 -21.264509 3.2362835
9.935813 -21.27914 3.2312422
9.9814854 -21.27211 3.2383089
10.030799 -21.280016 3.242543
10.084937 -21.280022 3.2341657
10.128398 -21.280405 3.2397127
10.401778 -21.288866 3.2491148
10.445408 -21.290861 3.252295
11.136016 -21.335243 3.2289462
12.434304 -21.428314 3.2285862
12.480793 -21.426805 3.231992
12.503006 -21.42074 3.2497399
12.745556 -21.449448 3.2365899
12.776278 -21.443285 3.2369325
12.825086 -21.44393 3.2338443
15.435789 -21.63294 3.2143965
15.478597 -21.626078 3.2218871
15.527459 -21.615555 3.22631
15.571478 -21.621412 3.2220287
15.619476 -21.626972 3.2320366
15.668077 -21.626606 3.2427733
15.717839 -21.627346 3.248132
15.780204 -21.624903 3.2516201
15.808331 -21.651854 3.2537422
9.7048664 -21.209002 3.2133136
9.7099314 -21.215431 3.2174089
9.8336887 -21.210279 3.2202179
9.8874731 -21.214813 3.2351069
9.9313402 -21.217703 3.2300742
9.9820595 -21.220428 3.232873
10.03402 -21.229738 3.2287178
10.078605 -21.227154 3.2410295
10.133671 -21.234407 3.2559731
10.370066 -21.249775 3.2528811
10.429634 -21.251118 3.2442391
11.085769 -21.297894 3.2289743
11.125958 -21.299616 3.2299469
11.160543 -21.304712 3.2349911
12.3894 -21.380915 3.2381766
12.439292 -21.395254 3.2232563
12.458684 -21.395185 3.2487063
12.516028 -21.389112 3.2222803
12.684587 -21.372589 3.2377291
12.738824 -21.385643 3.2282543
12.775167 -21.392702 3.2356164
12.828399 -21.418129 3.2254333
12.867787 -21.422779 3.2278292
15.529122 -21.563963 3.2135632
15.576558 -21.565815 3.2200127
15.621698 -21.570766 3.2315526
15.671759 -21.573582 3.2408392
15.715936 -21.576971 3.2474532
15.762177 -21.584148 3.2396541
15.805302 -21.575321 3.2525668
9.8076334 -21.172165 3.2140331
9.8501263 -21.167635 3.2262332
9.8896666 -21.171709 3.2232702
9.9485016 -21.186617 3.2246935
9.9883509 -21.181995 3.2313204
10.032541 -21.177475 3.236254
10.082974 -21.189192 3.2489619
10.355223 -21.212564 3.2584646
10.369378 -21.181208 3.255748
10.434208 -21.2106 3.2373984
11.056777 -21.241533 3.2294674
11.092567 -21.239565 3.2324207
11.116501 -21.241716 3.2382531
12.677435 -21.359364 3.2465558
12.733928 -21.354406 3.2386186
12.766253 -21.36887 3.2316732
12.837865 -21.36223 3.2487886
15.539889 -21.508276 3.2146347
15.581649 -21.515102 3.2218225
15.626875 -21.522127 3.2311125
15.674183 -21.523491 3.2405815
15.726262 -21.52816 3.2496583
15.776324 -21.542919 3.2481084
15.825179 -21.529335 3.2549555
9.9958916 -21.123245 3.2194381
10.042049 -21.125111 3.239769
10.077274 -21.132093 3.2332103
10.352633 -21.147024 3.2538598
10.380971 -21.157179 3.2469001
10.463813 -21.170176 3.2469819
11.042583 -21.195799 3.2325988
11.090093 -21.197117 3.2351825
15.542012 -21.458776 3.2146292
15.577984 -21.467955 3.2209847
15.627469 -21.476831 3.2313223
15.677603 -21.479313 3.2457948
15.728026 -21.484184 3.2424498
15.775234 -21.476469 3.2534759
10.045112 -21.101133 3.2298768
10.398371 -21.103508 3.238251
10.42871 -21.103285 3.2536094
11.000031 -21.142181 3.2254817
11.048041 -21.140242 3.2411685
11.086463 -21.147562 3.2365518
15.539561 -21.4168 3.2149034
15.588291 -21.421701 3.2218907
15.634236 -21.428089 3.234875
15.678906 -21.428566 3.2451069
15.71664 -21.423939 3.2545707
15.791126 -21.451797 3.2557318
10.607379 -21.039654 3.2604544
11.000256 -21.092386 3.2498131
11.040721 -21.086487 3.2296169
11.088859 -21.087381 3.2400568
15.542894 -21.367767 3.2133632
15.587031 -21.371727 3.2215824
15.634391 -21.372292 3.2349496
15.68224 -21.375381 3.2460716
15.726565 -21.380705 3.2454555
15.785734 -21.371386 3.2488732
11.018069 -21.05806 3.2297709
11.05815 -21.044714 3.2257295
11.074316 -21.041107 3.2595096
14.152852 -21.22159 3.2113571
14.193076 -21.218649 3.216989
14.244456 -21.219757 3.2223985
14.288018 -21.228943 3.2229209
14.338407 -21.224997 3.2418785
14.36881 -21.222855 3.2563684
15.499472 -21.295033 3.211
15.54362 -21.311321 3.2160931
15.594348 -21.317854 3.2256653
15.641988 -21.321404 3.2346644
15.685019 -21.321287 3.2379436
15.736019 -21.330637 3.2496979
15.79581 -21.341448 3.2545567
13.928833 -21.171635 3.2224948
14.109731 -21.177349 3.2109499
14.149293 -21.174305 3.220129
14.198377 -21.167015 3.2216129
14.247413 -21.167669 3.2328916
14.285675 -21.182188 3.2321277
14.3234 -21.213608 3.2532678
14.407873 -21.176971 3.2360306
14.429185 -21.177698 3.2570994
15.553447 -21.271114 3.2161808
15.590211 -21.273735 3.2223332
15.640234 -21.27564 3.2383127
15.690448 -21.277592 3.2486
15.739632 -21.287857 3.2442422
15.791077 -21.274126 3.2425842
12.212867 -21.027323 3.2523143
14.097891 -21.139927 3.2191508
14.163678 -21.126425 3.2155519
14.206598 -21.133463 3.2317965
14.248608 -21.148094 3.223573
14.298303 -21.148546 3.2404823
14.34281 -21.154388 3.2497606
14.37871 -21.159248 3.2546928
14.427808 -21.172716 3.252279
15.597492 -21.243746 3.2277477
15.643743 -21.23695 3.2310247
15.690147 -21.236391 3.2468107
15.740184 -21.211409 3.2395163
15.840766 -21.256266 3.2493131
12.416237 -20.986704 3.2247066
12.450045 -20.978838 3.2411013
12.485041 -20.972143 3.2536969
15.669509 -21.186453 3.2193575
15.698037 -21.179638 3.2282455
15.745795 -21.182493 3.2337439
15.793544 -21.173677 3.2457108
13.075109 -20.971552 3.235734
13.102001 -20.965111 3.2471969
13.168513 -20.9821 3.217396
13.205979 -20.97938 3.2427244
13.256658 -20.984264 3.2230158
13.308331 -20.986181 3.2350011
13.344665 -20.979815 3.2594943
13.411891 -20.980999 3.2404473
13.40659 -20.94113 3.2403555
13.448573 -20.94261 3.2386429
13.502538 -20.962669 3.2558186
14.313085 -20.964394 3.2169592
14.353765 -20.963301 3.222707
14.410338 -20.945292 3.2325563
14.455693 -20.96312 3.2472148
14.50244 -20.951902 3.2407002
14.559498 -20.938677 3.2175984
14.605474 -20.946587 3.2282901
14.662126 -20.947172 3.2414789
14.70427 -20.943455 3.2490592
14.618635 -20.923424 3.2386158
14.663194 -20.917789 3.2335489
14.714173 -20.923098 3.2414796
14.75181 -20.925066 3.25229
9.8988094 -23.508556 3.2715318
9.9438992 -23.512375 3.2795787
9.8907337 -23.466501 3.2718053
9.936595 -23.480282 3.2763708
9.9926767 -23.47596 3.2941008
10.034482 -23.482037 3.310219
10.387005 -23.503439 3.285485
10.046566 -23.447683 3.2764115
10.317282 -23.455511 3.2843957
10.351414 -23.454266 3.2979326
10.38591 -23.446798 3.2985075
11.031707 -23.489586 3.2873921
10.314974 -23.391029 3.2917194
10.34512 -23.403343 3.2948277
11.014693 -23.446352 3.2950521
11.050696 -23.461626 3.2849
10.376637 -23.370047 3.2801926
10.414773 -23.370096 3.2903559
10.452417 -23.370209 3.2996452
10.49591 -23.37101 3.3039818
10.538105 -23.371548 3.3103092
11.015212 -23.395912 3.2879939
11.050727 -23.392618 3.2880969
11.102013 -23.388424 3.2933252
11.042261 -23.356066 3.2931998
13.312546 -23.500937 3.2677071
13.353955 -23.505829 3.2831092
13.402781 -23.505163 3.2872601
13.452043 -23.506304 3.2849505
13.500461 -23.503328 3.2932131
13.552825 -23.509769 3.2864559
13.604168 -23.50511 3.2946396
13.642752 -23.505875 3.2991786
13.699231 -23.50865 3.3014545
13.742025 -23.507387 3.3056629
13.848592 -23.507513 3.3042719
13.932439 -23.504402 3.3088253
14.468007 -23.484648 3.2671635
14.488345 -23.48337 3.2737722
14.467482 -23.47578 3.2637649
14.501219 -23.476892 3.2783411
14.550719 -23.475626 3.2960165
14.602114 -23.456413 3.2783697
14.660385 -23.453871 3.2838354
14.700714 -23.457836 3.2925031
14.748122 -23.461136 3.302762
14.67995 -23.43256 3.2626681
14.712016 -23.43457 3.2749677
14.755396 -23.432278 3.2891195
14.794697 -23.428728 3.3001485
14.845617 -23.421082 3.3048742
12.474871 -23.158592 3.2842038
12.665441 -23.178631 3.3017902
12.711909 -23.178858 3.3078747
12.769023 -23.180857 3.2688992
14.063645 -23.265244 3.2617686
14.113774 -23.262333 3.2681184
14.336895 -23.283781 3.2637148
14.365437 -23.284948 3.2735853
14.417583 -23.28372 3.2953124
12.431007 -23.122221 3.2770374
12.479187 -23.139559 3.2898571
12.499607 -23.132816 3.2832556
12.672697 -23.15094 3.2771807
12.718806 -23.144602 3.2880342
12.77081 -23.139917 3.2892163
12.813153 -23.134476 3.3084588
14.165448 -23.257471 3.2809725
14.217583 -23.255302 3.283006
14.275383 -23.253527 3.2720098
14.320854 -23.249313 3.2785079
14.36546 -23.250519 3.2860618
14.413631 -23.249331 3.2959614
14.456693 -23.248995 3.3058221
12.391856 -23.071922 3.2727439
12.422005 -23.082836 3.2854791
12.47417 -23.090549 3.2818694
12.506396 -23.093519 3.3083458
12.669662 -23.107222 3.2758894
12.723754 -23.099028 3.2800758
12.766709 -23.103193 3.281657
12.819942 -23.097158 3.2778707
14.33301 -23.204687 3.2646561
14.368164 -23.208069 3.2792618
14.417699 -23.212099 3.2814
14.471358 -23.204639 3.2827604
14.513977 -23.197355 3.2995741
14.558718 -23.194746 3.3069828
12.440214 -23.034481 3.2819538
12.464487 -23.050085 3.2841315
12.685041 -23.023878 3.2862225
12.725526 -23.031626 3.2794755
12.783782 -23.05998 3.2878084
12.824807 -23.047153 3.2803874
15.719414 -23.222309 3.2912016
15.768915 -23.221691 3.2935779
15.82576 -23.226742 3.3005359
12.626666 -22.991762 3.2757385
12.672189 -22.990641 3.2626495
12.7528 -23.016863 3.264698
12.763325 -23.01067 3.2966175
12.820095 -23.020365 3.2954919
12.88595 -23.000206 3.2969425
15.646605 -23.154425 3.2727892
15.676359 -23.175371 3.2914019
15.724964 -23.181471 3.2823987
15.775067 -23.183765 3.2878835
15.817255 -23.185507 3.2914112
15.864077 -23.181862 3.3011961
12.816755 -22.949385 3.2901411
12.891479 -22.952669 3.292027
12.91998 -22.938791 3.2876537
15.479171 -23.137173 3.2613184
15.580893 -23.120523 3.2670338
15.627453 -23.124243 3.2740467
15.679734 -23.131798 3.27949
15.727031 -23.132963 3.2777424
15.779176 -23.136236 3.2814319
15.824629 -23.135586 3.2901354
15.874272 -23.136538 3.2943079
15.912232 -23.12499 3.302701
12.728643 -22.885214 3.3104887
12.774168 -22.897118 3.2855461
12.834494 -22.90415 3.2910364
12.908611 -22.887766 3.2939506
12.918674 -22.900406 3.2876368
15.60415 -23.071943 3.2961233
15.620644 -23.076132 3.2771339
15.692096 -23.07345 3.2638464
15.734418 -23.080299 3.2726405
15.780612 -23.083828 3.2862136
15.830659 -23.087494 3.2962854
15.869581 -23.096565 3.3006074
15.924476 -23.099489 3.2875657
15.971036 -23.092091 3.3035073
12.529866 -22.835869 3.3007352
12.651945 -22.82399 3.2847652
12.695086 -22.822266 3.2918804
12.728301 -22.852262 3.2932293
12.805629 -22.86591 3.2816839
12.839244 -22.857058 3.2890425
12.887996 -22.86315 3.2948687
12.92389 -22.879028 3.3005393
15.633713 -23.00251 3.2787831
15.693265 -23.019428 3.2742777
15.735008 -23.0287 3.2731488
15.785191 -23.036251 3.2818389
15.834074 -23.036167 3.2913003
15.882998 -23.035057 3.3013
15.910425 -23.02368 3.3065131
12.494107 -22.788681 3.2799697
12.532096 -22.795786 3.2917328
12.581539 -22.784451 3.3027699
12.645322 -22.798229 3.2840753
12.687902 -22.795759 3.2887361
12.743582 -22.803118 3.2832003
12.783842 -22.804628 3.2839384
12.843596 -22.817593 3.2798028
12.878037 -22.814781 3.2927649
15.59386 -22.99844 3.2659297
15.696101 -22.97871 3.2678034
15.740046 -22.982309 3.2751541
15.786842 -22.988995 3.2850263
15.833389 -22.993635 3.2915001
15.880668 -22.991287 3.2959876
15.931542 -22.99712 3.302495
12.515063 -22.754644 3.27988
12.532381 -22.753235 3.2978747
12.602644 -22.751791 3.2988119
12.650182 -22.762049 3.2827396
12.805067 -22.752043 3.2900982
12.852214 -22.762655 3.2950585
15.582753 -22.922888 3.2676327
15.641941 -22.934805 3.2740328
15.693803 -22.931698 3.2752471
15.739253 -22.936417 3.2775664
15.788304 -22.938354 3.2855601
15.839171 -22.937565 3.2945764
15.889427 -22.940811 3.2976704
15.930126 -22.941227 3.2928853
12.738585 -22.712231 3.2977819
12.785582 -22.692053 3.2795515
12.824132 -22.69243 3.2729635
15.665087 -22.873432 3.2627106
15.707005 -22.87833 3.2672009
15.742242 -22.888088 3.2749226
15.791528 -22.885464 3.288245
15.840919 -22.887369 3.29865
15.883459 -22.887398 3.3059509
15.947181 -22.913155 3.293093
12.705103 -22.63669 3.2783587
12.758998 -22.638992 3.2866864
12.798039 -22.656523 3.2888372
15.569476 -22.837704 3.2624099
15.596108 -22.84057 3.2710278
15.634945 -22.844416 3.2814581
15.701141 -22.830723 3.2717483
15.747664 -22.828365 3.2751715
15.798807 -22.828804 3.2894695
15.844613 -22.834328 3.2984951
15.895376 -22.828424 3.2745843
15.942945 -22.82873 3.2821827
12.668667 -22.604719 3.2898841
12.708917 -22.602074 3.2966096
12.759107 -22.605324 3.2994173
12.806297 -22.604753 3.2979774
12.839954 -22.627295 3.2980676
15.648394 -22.753614 3.2982228
15.707897 -22.777138 3.2721012
15.750825 -22.783072 3.2730701
15.801211 -22.789776 3.2856846
15.845829 -22.787313 3.2972307
15.890481 -22.797737 3.3023839
15.926159 -22.791204 3.297888
15.555596 -22.740707 3.2659552
15.595658 -22.746269 3.2800663
15.650328 -22.750139 3.2673721
15.704341 -22.731552 3.2707069
15.750339 -22.733114 3.278949
15.799738 -22.735931 3.2885885
15.849056 -22.737553 3.3016362
15.890319 -22.747736 3.3014185
15.564936 -22.654005 3.2676816
15.605048 -22.660101 3.2803357
15.654086 -22.674055 3.2831151
15.707414 -22.678602 3.2727315
15.754026 -22.678917 3.2772429
15.805591 -22.685133 3.293201
15.855627 -22.688385 3.292711
15.905676 -22.680199 3.2912788
15.931271 -22.67185 3.298239
15.676754 -22.6374 3.2639022
15.713236 -22.626547 3.2698894
15.757268 -22.631872 3.2786539
15.806929 -22.633593 3.2920198
15.858315 -22.643415 3.2995517
15.90381 -22.632065 3.2848434
15.670194 -22.566147 3.2802618
15.71621 -22.576584 3.2713964
15.764137 -22.581099 3.2811549
15.808358 -22.584915 3.2902462
15.858033 -22.588919 3.2965364
15.906859 -22.584389 3.2990508
15.957705 -22.615374 3.2882168
15.988857 -22.607174 3.2995095
15.572947 -22.538233 3.2631304
15.613077 -22.544844 3.2756922
15.669949 -22.539824 3.2680457
15.719066 -22.530348 3.2704024
15.766809 -22.534849 3.2789376
15.813017 -22.542545 3.2891197
15.860125 -22.53714 3.2989786
15.914518 -22.533978 3.3027709
15.940444 -22.560095 3.2850392
15.669885 -22.469473 3.2729738
15.720649 -22.477499 3.2729683
15.768821 -22.486734 3.2844861
15.81563 -22.489042 3.2920732
15.857454 -22.487677 3.3032901
15.568704 -22.437059 3.2624757
15.620522 -22.437372 3.2701485
15.669967 -22.4331 3.2734256
15.726272 -22.428143 3.2712617
15.773164 -22.436512 3.2794182
15.819698 -22.440784 3.2926202
15.862977 -22.441032 3.3006675
15.613578 -22.370134 3.2668216
15.679927 -22.372229 3.2743292
15.730727 -22.376015 3.2729833
15.772079 -22.382278 3.2769904
15.81874 -22.383133 3.2909956
15.869494 -22.3818 3.3009095
15.578576 -22.297482 3.2740374
15.618498 -22.302992 3.2868574
15.682487 -22.320583 3.2837522
15.727418 -22.329063 3.2681196
15.774621 -22.33375 3.277492
15.82516 -22.332211 3.2911618
15.870514 -22.340872 3.3019304
15.553546 -22.294317 3.2673335
15.629322 -22.283775 3.2631721
15.675282 -22.277687 3.2718501
15.728619 -22.28154 3.2708519
15.779832 -22.28511 3.281512
15.832626 -22.286434 3.293926
15.872606 -22.285038 3.3010867
15.906907 -22.273708 3.3026893
15.644615 -22.247816 3.2638314
15.69094 -22.245007 3.2676764
15.738535 -22.23542 3.2704866
15.782308 -22.234594 3.2799847
15.830468 -22.237606 3.2946677
15.871121 -22.239233 3.3063216
15.657093 -22.170273 3.2699599
15.692182 -22.169962 3.2689278
15.73607 -22.181572 3.2700315
15.785352 -22.183569 3.2818677
15.834061 -22.188576 3.294539
15.878915 -22.18581 3.3014462
12.70035 -21.941942 3.2973964
12.73953 -21.941925 3.2970572
12.787799 -21.934328 3.2931554
15.54894 -22.115675 3.2630103
15.586788 -22.119766 3.2745447
15.639985 -22.125853 3.2919505
15.68891 -22.127062 3.2695851
15.74149 -22.129612 3.2740214
15.789094 -22.136154 3.2847388
15.836452 -22.13402 3.2938192
15.883557 -22.145658 3.304728
12.710512 -21.912575 3.282707
12.759399 -21.893719 3.2790723
12.789106 -21.891163 3.2861285
15.649205 -22.068172 3.2648818
15.695333 -22.078016 3.2673681
15.74616 -22.078369 3.2725637
15.792407 -22.080942 3.2824578
15.838605 -22.085476 3.294656
15.876606 -22.101904 3.2986114
12.759604 -21.856726 3.2864947
12.797164 -21.860748 3.2792914
12.825723 -21.868206 3.2784426
15.607699 -22.021839 3.2654305
15.654228 -22.01778 3.2710569
15.701971 -22.036316 3.2711105
15.744531 -22.036945 3.2730234
15.797561 -22.036608 3.2865832
15.842484 -22.045238 3.2967377
15.880696 -22.044495 3.3030245
12.753392 -21.807945 3.2752242
