# .PCD v0.7 - Point Cloud Data file format
VERSION 0.7
FIELDS x y z
SIZE 4 4 4
TYPE F F F
COUNT 1 1 1
WIDTH 1560
HEIGHT 1
VIEWPOINT 0 0 0 1 0 0 0
POINTS 1560
DATA ascii
12.356004 -9.3162127 1.2772074
10.622603 -9.1573515 1.2773172
12.217145 -9.2308521 1.2788453
12.284682 -9.235343 1.2743553
12.318273 -9.2540464 1.2759492
12.350865 -9.2563553 1.3005009
10.574835 -9.1043892 1.2746441
10.623942 -9.0993595 1.2809155
12.234471 -9.1898155 1.2759967
12.282455 -9.2051573 1.2764095
12.304926 -9.2144308 1.2951038
19.12553 -9.6135378 1.2681754
19.161053 -9.6306515 1.2787986
19.2061 -9.6117077 1.2788152
19.251799 -9.6319246 1.2975991
10.604233 -9.0641298 1.2894664
10.615253 -9.0642309 1.2608814
12.051025 -9.1397772 1.2577188
12.087138 -9.1383543 1.2714515
12.124831 -9.1286221 1.2774585
12.180396 -9.1316767 1.274847
12.226799 -9.1479683 1.2774704
12.271175 -9.1631594 1.283987
19.054508 -9.5371475 1.2608532
19.127033 -9.5673084 1.2644844
19.157318 -9.5710878 1.2749782
19.213232 -9.5757427 1.2798113
19.243395 -9.5891438 1.2987045
12.040158 -9.0933533 1.2741008
12.075697 -9.085145 1.2791278
12.122916 -9.0674295 1.2779084
12.164021 -9.0852327 1.2735606
12.209822 -9.1147022 1.2877283
19.084488 -9.5034494 1.2756993
19.115282 -9.5184259 1.267608
19.164225 -9.5309305 1.2771403
19.221031 -9.5102777 1.2796315
19.074133 -9.4512014 1.2591802
19.126701 -9.4729252 1.2665764
19.166939 -9.4610634 1.2816324
19.223679 -9.4710236 1.2936282
19.08742 -9.4123602 1.2675208
19.13521 -9.4123688 1.2772664
19.175409 -9.4166813 1.2871064
19.216465 -9.440856 1.2921606
19.102629 -9.3628492 1.2505867
19.110174 -9.3842487 1.2643707
19.168959 -9.3687925 1.2844893
19.212534 -9.3787613 1.2846695
19.076342 -9.3346004 1.2609093
19.142523 -9.3397264 1.2773787
19.170908 -9.3193245 1.2816484
19.098299 -9.2425737 1.2530475
19.154787 -9.2440157 1.2723421
19.195314 -9.2711782 1.280234
19.1308 -9.2164545 1.2679203
19.176888 -9.2140713 1.2815052
19.224852 -9.2231312 1.2612954
19.096745 -9.1737213 1.2783998
19.150713 -9.1634684 1.2677615
19.180799 -9.1765194 1.2847955
19.060747 -9.101243 1.2591088
19.095743 -9.1198072 1.2753979
19.145597 -9.1129065 1.2737007
19.198799 -9.1389093 1.2763413
19.066545 -9.0583153 1.2711487
19.099134 -9.0635433 1.2725099
19.146477 -9.0647373 1.284258
19.238083 -9.0949688 1.2960488
19.064302 -9.0089846 1.2739635
19.108456 -9.0208635 1.2685153
19.144863 -9.0146494 1.2793597
19.190855 -9.0163393 1.2918841
19.072176 -8.9477587 1.2672683
19.099604 -8.9602833 1.2746553
19.152481 -8.9713535 1.2806453
19.193422 -8.9755955 1.2981544
19.072407 -8.901289 1.2778058
19.103939 -8.9315176 1.2743658
19.142948 -8.9194727 1.2806743
19.193363 -8.9385958 1.2998754
19.07221 -8.8778152 1.2748652
19.105385 -8.8661804 1.27915
19.152418 -8.8748751 1.2846106
19.05422 -8.8134508 1.2741983
19.101461 -8.8164539 1.2657228
19.154865 -8.8324375 1.278686
19.187719 -8.8197231 1.2987407
19.067184 -8.7546701 1.2829224
19.108629 -8.7573843 1.2749125
19.171751 -8.7698402 1.2747744
19.042124 -8.6883726 1.2811575
19.076759 -8.7118292 1.2742697
19.102259 -8.7040586 1.270594
19.154501 -8.7073946 1.2779595
19.084278 -8.6630917 1.2664821
19.133003 -8.6461115 1.2706157
19.164164 -8.6623459 1.2991213
10.212083 -11.228632 1.3465291
10.263439 -11.225771 1.342237
10.283692 -11.216805 1.3490525
10.362187 -11.207399 1.3527015
10.369072 -11.183263 1.3432193
10.386235 -11.192318 1.3492354
10.511415 -11.18481 1.3450443
10.551034 -11.172351 1.3103086
10.474778 -11.154157 1.3303422
10.498527 -11.129327 1.3322965
10.536363 -11.130379 1.3136297
10.516174 -11.098158 1.3182342
10.54284 -11.105671 1.3212622
12.078626 -11.037199 1.312796
12.116141 -11.036777 1.329951
12.152355 -11.044448 1.3289757
12.220645 -11.043093 1.3229207
12.245514 -11.03414 1.3461339
12.185999 -10.97181 1.318297
12.22 -10.98932 1.3314821
12.266064 -10.984729 1.3295691
12.310856 -10.985526 1.3270516
12.201103 -10.967153 1.3423909
12.268697 -10.94784 1.3272196
12.326203 -10.942674 1.3267133
12.350035 -10.94546 1.3436804
12.315842 -10.918414 1.3286074
12.367369 -10.896806 1.328652
12.33482 -10.857665 1.3253955
12.371269 -10.85117 1.3290429
12.406597 -10.84411 1.3351241
12.353009 -10.78084 1.3059371
12.382702 -10.80918 1.3291969
12.420538 -10.799602 1.3311121
19.022848 -11.190039 1.3067118
19.079603 -11.215809 1.332723
19.120663 -11.223269 1.3244971
19.154728 -11.218187 1.3330852
12.380781 -10.76133 1.3298147
12.42552 -10.759277 1.3295349
19.035286 -11.177165 1.3033432
19.071571 -11.169493 1.3201874
19.115223 -11.169316 1.3349433
19.148548 -11.168929 1.3316494
12.399282 -10.718256 1.3277577
12.432829 -10.704947 1.3279254
19.065853 -11.115732 1.3237542
19.11974 -11.125121 1.3286042
19.189514 -11.115015 1.3409408
12.396073 -10.653633 1.3274801
12.428556 -10.656727 1.3293327
19.028862 -11.047031 1.3057028
19.083422 -11.063067 1.3200793
19.127884 -11.081489 1.3217297
19.173031 -11.054535 1.3467469
12.39753 -10.596402 1.3264869
12.430037 -10.605972 1.3298575
19.074562 -11.021618 1.3289471
19.121874 -11.021698 1.3296725
19.171137 -11.03432 1.3431791
12.365655 -10.534379 1.3201687
12.397358 -10.553161 1.3257679
12.426044 -10.557248 1.3392236
19.043064 -10.958289 1.3065079
19.084702 -10.969318 1.3260571
19.129572 -10.979071 1.3266448
12.314867 -10.485303 1.3245252
12.358474 -10.492074 1.3267258
12.393587 -10.507628 1.330302
19.039446 -10.911751 1.3268164
19.077492 -10.912728 1.3264554
19.12904 -10.916889 1.3313898
19.169886 -10.930182 1.3470893
12.200786 -10.422893 1.3304893
12.227505 -10.421943 1.3129715
12.305213 -10.442504 1.3284622
12.348289 -10.445085 1.3272799
12.386006 -10.466216 1.3318439
19.047323 -10.861741 1.3177294
19.080137 -10.866327 1.3213379
19.133137 -10.877629 1.3210807
12.067112 -10.365484 1.3229601
12.10321 -10.364346 1.3333719
12.151481 -10.37534 1.3167714
12.186042 -10.38596 1.3323562
12.264605 -10.388732 1.3295506
12.301599 -10.399811 1.3265185
12.337276 -10.411352 1.3281431
18.978258 -10.810194 1.3027793
19.05254 -10.813539 1.3210313
19.080809 -10.823028 1.325156
19.133341 -10.827672 1.3274384
12.125161 -10.323843 1.3159056
12.147761 -10.334419 1.3354075
12.203589 -10.339465 1.3316889
12.250507 -10.352357 1.3276482
19.033913 -10.770389 1.3183756
19.085167 -10.752 1.330605
19.136326 -10.769929 1.3206842
19.173683 -10.77213 1.3444233
19.053083 -10.725299 1.3287339
19.095903 -10.712296 1.3238142
19.141138 -10.710271 1.3307079
19.037645 -10.646865 1.3248738
19.097071 -10.65486 1.3265302
19.145464 -10.679618 1.3325678
19.185387 -10.664783 1.3355529
19.005739 -10.606443 1.3034058
19.046341 -10.594949 1.3052404
19.099363 -10.618138 1.3185273
19.131075 -10.62545 1.3243622
19.178024 -10.624588 1.3441577
19.047279 -10.557069 1.3090889
19.106085 -10.563773 1.3292587
19.166325 -10.585633 1.3323562
19.030493 -10.489446 1.3111769
19.068846 -10.503784 1.3325747
19.107901 -10.516569 1.3197566
19.151836 -10.517483 1.347267
19.065628 -10.465813 1.3206414
19.121098 -10.468297 1.3220325
19.147799 -10.460655 1.3156856
19.205643 -10.455808 1.348839
19.113472 -10.417767 1.3171765
19.175028 -10.414743 1.3383845
19.075884 -10.375523 1.3179159
19.113001 -10.364382 1.3264878
19.15517 -10.37801 1.3391912
19.199541 -10.369167 1.3374842
19.04324 -10.326384 1.3175706
19.07881 -10.293724 1.31626
19.132915 -10.312213 1.3125513
19.167845 -10.325624 1.3399707
19.023573 -10.285862 1.3173932
19.086756 -10.271945 1.3197488
19.122463 -10.271491 1.3211945
19.179911 -10.276766 1.3289558
19.02902 -10.233299 1.3128506
19.0819 -10.207712 1.3265039
19.124622 -10.209302 1.3303545
12.086183 -9.7517729 1.3265412
12.145334 -9.7392998 1.3272924
12.210745 -9.7492695 1.3268682
19.051294 -10.180469 1.3025671
19.090017 -10.16575 1.3121791
19.136486 -10.169579 1.34153
19.165884 -10.165862 1.3413529
12.162341 -9.6922407 1.3110454
12.187064 -9.6950455 1.3268311
12.240383 -9.6820335 1.3286686
19.033453 -10.104267 1.3117328
19.08674 -10.116376 1.3259964
19.114975 -10.130676 1.322349
19.164312 -10.1091 1.3354001
12.204475 -9.6580334 1.3226496
12.251822 -9.6475887 1.3271148
12.286029 -9.6543694 1.3267454
19.078159 -10.062304 1.3234847
19.136568 -10.077092 1.3362635
19.160702 -10.076843 1.3356054
19.218777 -10.068163 1.3503147
12.268537 -9.611475 1.3233793
12.291821 -9.6059113 1.3294424
12.340135 -9.5929546 1.3261971
19.043999 -10.025152 1.3069787
19.078402 -10.026084 1.3158392
19.129559 -10.020407 1.3237431
12.319618 -9.5537319 1.3250482
12.344025 -9.5465279 1.3321654
19.097897 -9.985815 1.3109848
19.146252 -9.9806957 1.320575
19.187389 -9.9820404 1.3377022
12.328193 -9.5100927 1.3171432
12.354602 -9.5022602 1.3270605
12.385998 -9.4934692 1.338089
12.328451 -9.4401693 1.3238709
12.363525 -9.4488468 1.32775
12.389544 -9.4404688 1.3494771
12.334438 -9.4018536 1.3179617
12.362374 -9.4047699 1.3274015
12.401999 -9.388361 1.3247344
12.33127 -9.3570499 1.3230131
12.361561 -9.3525105 1.3285118
12.415185 -9.3781633 1.3477409
10.604263 -9.1714954 1.3288271
12.288756 -9.2971478 1.3138614
12.325319 -9.2949047 1.3276203
12.358007 -9.3071318 1.3311157
12.398487 -9.3226404 1.3281769
10.556446 -9.1156664 1.3491318
10.607965 -9.1566935 1.3231559
12.232308 -9.2269497 1.3307751
12.293891 -9.2323437 1.3191416
12.320781 -9.2451725 1.3284943
12.356867 -9.2539787 1.3270249
10.550022 -9.1009712 1.344898
10.585349 -9.1066084 1.329177
10.614125 -9.1036215 1.317806
12.240408 -9.1783953 1.3226765
12.275183 -9.1963291 1.3276855
12.309748 -9.2088804 1.330454
19.263937 -9.6211538 1.3273637
10.584255 -9.0644817 1.3222281
12.130537 -9.1331873 1.3320618
12.179135 -9.1302929 1.3258218
12.234102 -9.140317 1.3265893
12.27836 -9.15769 1.3272144
12.305257 -9.1614962 1.3320937
19.174608 -9.5596409 1.3051399
19.207319 -9.5800724 1.312217
19.266497 -9.5748882 1.3338472
12.048743 -9.0969448 1.3141396
12.083066 -9.0845995 1.3315058
12.131023 -9.093998 1.3213435
12.179931 -9.0868254 1.3202376
12.212173 -9.1085377 1.3221707
19.174313 -9.5358858 1.3367791
19.222 -9.519803 1.3187062
19.268967 -9.5253019 1.3301474
12.132214 -9.0598211 1.342566
12.183904 -9.061945 1.3405557
19.122471 -9.4742584 1.3011781
19.172724 -9.4778948 1.322733
19.211283 -9.4628201 1.3227911
19.276064 -9.4752293 1.3344655
19.298595 -9.4868402 1.3324208
19.106676 -9.3943367 1.3007387
19.186861 -9.4127331 1.3113935
19.210825 -9.4270573 1.3203398
19.270803 -9.4339533 1.3422883
19.194254 -9.3865108 1.3141786
19.2257 -9.3658781 1.3297566
19.270592 -9.3705769 1.3339896
10.416479 -8.7917423 1.3485981
19.196911 -9.3120356 1.3188726
19.258915 -9.3413687 1.3320544
19.331327 -9.3185329 1.3491862
10.397571 -8.7291164 1.3440849
10.45611 -8.720129 1.3398138
10.480378 -8.7270775 1.3325351
10.536552 -8.7135887 1.3378956
10.450903 -8.6798201 1.3292472
10.500633 -8.6704588 1.339453
19.156889 -9.239295 1.302953
19.198536 -9.2007456 1.3233652
19.245115 -9.2201681 1.3303387
10.424413 -8.6532106 1.3461169
10.447976 -8.6499405 1.3406317
19.151514 -9.1616554 1.3183602
19.191351 -9.1773806 1.3004216
19.239786 -9.1729813 1.3235561
19.107708 -9.0947018 1.3046286
19.145046 -9.1207743 1.318778
19.193947 -9.1177855 1.3196473
19.256514 -9.1439896 1.3405356
19.149731 -9.0692978 1.3198733
19.196438 -9.0713024 1.3401513
19.103855 -9.0132666 1.320519
19.156622 -9.0183821 1.3212562
19.194576 -9.0149107 1.3200175
19.236906 -9.0246162 1.337381
19.111177 -8.9552383 1.3236287
19.148781 -8.9667006 1.3197505
19.198883 -8.9639454 1.3305982
19.234938 -8.9838943 1.3311504
19.117212 -8.908287 1.3158913
19.155247 -8.9277439 1.3307762
19.204498 -8.9046879 1.330644
19.119635 -8.8769569 1.3395396
19.166134 -8.8540163 1.3320192
19.198433 -8.8691893 1.324416
19.239531 -8.8519869 1.3273451
19.077192 -8.7916832 1.3200244
19.106274 -8.8231936 1.3061103
19.160959 -8.8142204 1.3164161
19.20986 -8.8146038 1.3272222
19.244883 -8.814908 1.3454655
19.131275 -8.7703342 1.3131913
19.15732 -8.7680082 1.3210164
19.221226 -8.7642622 1.3181065
19.135571 -8.7234278 1.3173985
19.167723 -8.7162161 1.3146323
19.216135 -8.7128763 1.3403732
19.124117 -8.6623735 1.3086921
19.165682 -8.6691589 1.3155938
19.216719 -8.67554 1.3294713
10.211544 -11.227224 1.3630643
10.234677 -11.229764 1.3745354
10.296646 -11.232267 1.3729963
10.361018 -11.235409 1.3756664
10.406219 -11.230999 1.3754883
10.490287 -11.235622 1.3874649
10.358504 -11.181025 1.3737085
10.402221 -11.185914 1.3773531
10.454014 -11.185396 1.3899975
10.503264 -11.19792 1.3830472
10.531047 -11.212109 1.3783473
10.426802 -11.134318 1.3946439
10.453709 -11.140103 1.3781601
10.508344 -11.145485 1.384885
10.537009 -11.150235 1.3691082
10.446197 -11.097599 1.3893735
10.498778 -11.098195 1.3687181
12.1117 -11.031865 1.3762209
12.164639 -11.039301 1.3762826
12.223459 -11.041797 1.3706921
12.248007 -11.036305 1.3893224
12.222992 -10.98422 1.3682783
12.263974 -10.983645 1.3788387
12.309746 -10.989536 1.3853577
12.216664 -10.965703 1.3766637
12.278876 -10.945196 1.3757724
12.325313 -10.946538 1.3772517
12.354818 -10.940375 1.3816941
12.328199 -10.913803 1.3785177
12.369712 -10.907221 1.3737003
12.402076 -10.895669 1.3810852
12.343505 -10.854155 1.3719715
12.374108 -10.854283 1.3797275
12.412414 -10.848179 1.378505
12.389304 -10.818349 1.3799111
12.426163 -10.798902 1.3795319
19.0781 -11.240833 1.3766475
19.122524 -11.209984 1.3707908
19.164492 -11.22914 1.3784823
19.202726 -11.231692 1.3737205
12.393793 -10.761236 1.3776848
12.437865 -10.755634 1.3788421
12.456194 -10.777645 1.3946419
19.066446 -11.183893 1.3529136
19.121231 -11.167289 1.3634645
19.163771 -11.162125 1.3855165
19.203299 -11.174109 1.378234
12.407039 -10.714009 1.3590593
12.44141 -10.706828 1.3775486
12.462511 -10.698874 1.3965656
19.119576 -11.107618 1.3604848
19.166708 -11.126205 1.3705281
19.19849 -11.144311 1.3828135
12.399667 -10.655995 1.3752872
12.440101 -10.656231 1.3787223
12.466453 -10.655202 1.3844624
19.091488 -11.088128 1.3570937
19.137598 -11.075231 1.3658993
19.181768 -11.072256 1.3771335
19.198708 -11.08343 1.353789
12.402962 -10.604481 1.3663175
12.439916 -10.606516 1.3797121
19.079544 -11.034688 1.3552282
19.133484 -11.014459 1.3663481
19.165815 -11.030088 1.3655488
12.398438 -10.554766 1.3763921
12.435203 -10.550631 1.3806337
19.143175 -10.962597 1.3641461
19.170532 -10.990948 1.3596866
12.347656 -10.488633 1.380987
12.397935 -10.498738 1.3771476
12.423856 -10.522547 1.3779976
19.130913 -10.923593 1.3703461
19.165396 -10.897242 1.3584801
12.218485 -10.421641 1.3633115
12.232748 -10.420793 1.3902496
12.314673 -10.433993 1.3776225
12.354163 -10.440834 1.3747076
12.389071 -10.459798 1.3818355
19.105396 -10.851772 1.3604844
19.132519 -10.880162 1.3723366
12.095201 -10.363522 1.3777626
12.203101 -10.385421 1.376578
12.245636 -10.403619 1.3710551
12.305335 -10.394307 1.3733677
12.342602 -10.407161 1.3820643
19.095448 -10.82159 1.358369
19.143576 -10.828712 1.3626148
12.148787 -10.341747 1.3780738
12.210612 -10.333663 1.3789617
12.263361 -10.350527 1.3793138
12.306583 -10.374124 1.3946865
19.131561 -10.792871 1.3577431
19.184036 -10.772141 1.3624253
19.075373 -10.7164 1.3547878
19.134287 -10.722403 1.3538932
19.193041 -10.722452 1.3653204
19.168989 -10.693339 1.3816969
19.196987 -10.675427 1.3713486
19.170467 -10.629798 1.3602788
19.18852 -10.622922 1.3646566
19.095922 -10.580875 1.353381
19.101233 -10.537822 1.3533487
19.135414 -10.521469 1.3706402
19.199186 -10.523664 1.3789247
19.117128 -10.455062 1.3624957
19.16955 -10.480421 1.3640255
19.196779 -10.458611 1.3578354
19.139177 -10.396004 1.3743894
19.175119 -10.426167 1.3658998
19.194862 -10.40468 1.3791908
19.161348 -10.36489 1.3750147
19.138275 -10.321336 1.3716292
19.17531 -10.331386 1.3715219
19.19953 -10.317824 1.3554945
19.172791 -10.277226 1.3631116
19.207071 -10.255879 1.3748629
19.176397 -10.210859 1.3700491
12.107657 -9.7479897 1.368733
12.155858 -9.7379341 1.3738027
12.174908 -9.7345848 1.3907282
12.221747 -9.7507954 1.3740244
19.14056 -10.192729 1.3566355
19.188675 -10.184129 1.3868486
12.200146 -9.692543 1.3742146
12.253206 -9.6810236 1.3780364
12.287939 -9.6724176 1.3954507
19.082998 -10.120871 1.3528965
19.132109 -10.10722 1.3704851
19.178053 -10.139494 1.3733989
12.216545 -9.6518526 1.3633312
12.253073 -9.6527233 1.3752805
12.291852 -9.6535263 1.3783416
19.107273 -10.067417 1.3608125
19.137531 -10.047451 1.3555957
19.193186 -10.063968 1.3790239
19.218088 -10.059754 1.3574667
12.30142 -9.606801 1.3766866
12.352042 -9.5942383 1.3764184
12.380705 -9.5805912 1.3937172
19.167948 -10.022931 1.3694488
12.326428 -9.5423403 1.3709924
12.347442 -9.5488291 1.3793091
19.186325 -9.9929037 1.3621321
12.365558 -9.4986067 1.3745011
12.392246 -9.4995852 1.3816288
12.367085 -9.4484158 1.3736084
12.394236 -9.4454012 1.3821056
12.373249 -9.4061317 1.3746959
12.394524 -9.4116488 1.3814862
12.340691 -9.3469973 1.3611695
12.368693 -9.3526936 1.3757907
12.403299 -9.3604994 1.3866688
12.329984 -9.2936792 1.3705873
12.364749 -9.2972002 1.3810072
12.415639 -9.3147564 1.3751367
10.538699 -9.1167707 1.379683
10.587719 -9.1645527 1.3637463
12.24905 -9.2246704 1.3640763
12.256058 -9.2229576 1.3863214
12.332394 -9.2414732 1.3751508
12.368058 -9.2485046 1.3781528
10.53115 -9.1071663 1.3777064
10.577721 -9.1065798 1.381941
12.251109 -9.1783018 1.3638448
12.276307 -9.1919451 1.3766743
12.319991 -9.2037086 1.3773811
12.144977 -9.1354427 1.378171
12.18627 -9.1262913 1.3749374
12.239266 -9.138834 1.3739747
12.272467 -9.1460543 1.3794811
12.31004 -9.155057 1.3726466
19.231321 -9.5553055 1.3528656
19.258747 -9.5927229 1.3619927
10.388485 -8.980298 1.3887767
10.422938 -8.9763279 1.3941385
12.035378 -9.0936718 1.3821883
12.090298 -9.0882807 1.3798215
12.136301 -9.0840845 1.374642
12.18986 -9.0978193 1.3780353
12.219103 -9.100071 1.3719161
19.230951 -9.5080528 1.3513664
19.27828 -9.5108891 1.3636557
19.311932 -9.5447197 1.3617072
10.302065 -8.9340496 1.3996463
10.339067 -8.9088001 1.3826481
10.385852 -8.9299822 1.3772806
10.444526 -8.92768 1.3814733
10.498186 -8.9347496 1.3916684
10.532549 -8.9262552 1.3995051
12.133458 -9.0549726 1.3790611
12.195523 -9.0574389 1.3785442
19.227787 -9.47474 1.3617902
19.269241 -9.4666128 1.3654114
19.334864 -9.4953289 1.3649958
10.344357 -8.8716459 1.3838034
10.398771 -8.8782845 1.3825189
10.434944 -8.8785 1.3892356
10.485253 -8.8800163 1.3880825
10.52838 -8.8633995 1.3920898
19.227324 -9.4253159 1.367201
19.274738 -9.4290295 1.3731616
19.305038 -9.4308138 1.3714218
10.351602 -8.82864 1.3860122
10.395146 -8.825901 1.378541
10.442556 -8.8311758 1.3862057
10.497445 -8.8309116 1.3934475
10.54546 -8.8408308 1.392308
19.270966 -9.3784924 1.3709269
19.335644 -9.3852949 1.3704106
10.351211 -8.7804232 1.3794212
10.394567 -8.7799768 1.3865052
10.449044 -8.7857304 1.3837177
10.490938 -8.7885895 1.391808
10.547478 -8.7909212 1.381614
10.591894 -8.7815113 1.3951216
19.340193 -9.3385143 1.3614119
10.361959 -8.7334547 1.3856102
10.413929 -8.7209463 1.3741995
10.445422 -8.7143784 1.3719052
10.49732 -8.7213926 1.3787583
10.533801 -8.7221785 1.3835833
19.328011 -9.2748222 1.3601606
10.396684 -8.6761141 1.3787217
10.454178 -8.6892681 1.3764318
10.506846 -8.6920338 1.3834234
10.54727 -8.6960936 1.3878703
19.239592 -9.2030802 1.3506978
19.179235 -9.1288433 1.3552823
19.219334 -9.1437168 1.3573569
19.214306 -9.065834 1.3607442
19.165115 -8.9999743 1.3715255
19.203722 -8.9687471 1.3685262
19.248419 -8.9750061 1.3647006
19.178459 -8.90343 1.3800633
19.217188 -8.9162779 1.3804077
19.234365 -8.9092617 1.3631122
19.207968 -8.8492632 1.3709717
19.240093 -8.8643532 1.3618979
19.131618 -8.8023653 1.3636757
19.1782 -8.8123426 1.354648
19.214954 -8.8192625 1.3741635
19.24481 -8.820796 1.3771791
19.175802 -8.773839 1.3581583
19.218193 -8.7689819 1.3628573
19.261499 -8.7796097 1.3630267
19.18965 -8.7080803 1.3626254
19.217567 -8.7140942 1.3711298
19.249559 -8.7167015 1.367412
19.173634 -8.6669989 1.3563427
19.222631 -8.670475 1.3635123
19.255705 -8.6580677 1.3601874
10.494121 -11.240552 1.4276654
10.528072 -11.2372 1.4100455
10.452697 -11.188022 1.418487
10.50935 -11.204445 1.4187777
10.428962 -11.132538 1.420583
10.481651 -11.162209 1.4140211
10.45677 -11.105844 1.4219778
12.128571 -11.026336 1.4223242
12.172865 -11.031919 1.4244968
12.195758 -11.036654 1.433988
12.257719 -11.03773 1.4316275
12.198373 -11.017297 1.4510961
12.268559 -10.983262 1.4226402
12.315514 -10.987771 1.4261442
12.341712 -10.986071 1.4414947
12.224813 -10.963146 1.4240198
12.27266 -10.953707 1.4234114
12.311543 -10.945569 1.4331814
12.359625 -10.945706 1.427446
12.327427 -10.91097 1.4272863
12.374284 -10.915191 1.4274359
12.413271 -10.896184 1.4310383
12.379039 -10.856419 1.423496
12.415219 -10.85358 1.4314005
12.385247 -10.82552 1.434021
12.425984 -10.809989 1.4288149
12.460353 -10.797423 1.4326069
12.403399 -10.754781 1.4188393
12.432584 -10.757277 1.4251765
12.462594 -10.755976 1.4335577
12.440133 -10.707154 1.4261605
12.469706 -10.700027 1.429291
12.403179 -10.657922 1.4293553
12.4451 -10.652217 1.424306
12.473862 -10.651171 1.4357615
12.451223 -10.604979 1.4259677
12.469251 -10.6074 1.4394498
12.404212 -10.551569 1.4258273
12.442646 -10.551379 1.4264646
12.47012 -10.558652 1.442781
12.361796 -10.485868 1.4259347
12.401472 -10.491876 1.4235969
12.432272 -10.511409 1.4305124
12.242159 -10.420694 1.4118861
12.321729 -10.426159 1.4164304
12.347305 -10.437284 1.4237021
12.39751 -10.453279 1.4305801
12.110802 -10.363153 1.413731
12.220437 -10.385015 1.4211127
12.243002 -10.405452 1.4327334
12.313775 -10.399325 1.4258555
12.352677 -10.403351 1.4295766
12.124774 -10.362617 1.4427767
12.164874 -10.343091 1.4291787
12.219832 -10.329221 1.4301494
12.260779 -10.337173 1.41934
12.295797 -10.358116 1.4311266
12.145056 -9.7354603 1.4218297
12.183964 -9.7341843 1.4283648
12.234929 -9.7535992 1.4256947
12.112373 -9.6950989 1.4370801
12.210344 -9.6931629 1.4197342
12.248425 -9.6830931 1.4280423
12.289213 -9.677186 1.4317008
12.260181 -9.653306 1.4293911
12.29398 -9.6510477 1.4272261
12.328514 -9.6597376 1.4409281
12.315685 -9.6041126 1.4241688
12.348719 -9.5998631 1.4334369
12.390023 -9.5812979 1.4229798
12.359151 -9.546423 1.4253455
12.38263 -9.5368719 1.4377337
12.370162 -9.501502 1.4228165
12.398583 -9.4997168 1.4282112
12.372274 -9.4458313 1.4209201
12.401727 -9.4505587 1.4283911
12.373248 -9.4054623 1.423364
12.404013 -9.4111881 1.4292989
12.378504 -9.3487749 1.4231268
12.407176 -9.3588886 1.430166
12.446653 -9.3622122 1.4386081
12.330873 -9.2941475 1.4247757
12.375889 -9.2974033 1.4261622
12.408683 -9.3138189 1.4327884
10.494717 -9.1195564 1.4454341
10.530743 -9.115571 1.4234675
12.262897 -9.2203369 1.4183679
12.339538 -9.2355795 1.4225157
12.364957 -9.2514734 1.4286151
10.292475 -9.0678501 1.4489985
10.425174 -9.0753336 1.4442247
10.484823 -9.0736122 1.4459275
10.540933 -9.1055412 1.4365162
12.287817 -9.1902332 1.4263281
12.332713 -9.2030983 1.427058
12.370741 -9.2177935 1.4320447
12.400249 -9.2164326 1.4520084
10.288069 -9.0222712 1.4336886
10.343218 -9.0093937 1.4121516
10.392016 -9.0117617 1.4122366
10.476832 -9.0377283 1.4227949
10.534621 -9.0205069 1.4249305
12.173357 -9.1268129 1.4259903
12.23105 -9.1326628 1.4272759
12.275435 -9.1429367 1.4279563
12.317202 -9.1467762 1.4282773
10.298002 -8.9962416 1.4411463
10.342415 -8.9875965 1.4363999
10.390696 -8.9784298 1.4273101
10.436986 -8.990036 1.4301164
10.484022 -8.9847927 1.4297296
10.529703 -8.9842758 1.4366213
12.054009 -9.0922871 1.4084357
12.084691 -9.091608 1.4238037
12.121478 -9.081954 1.4317273
12.16959 -9.1073341 1.427624
12.223979 -9.0918236 1.4231589
10.30635 -8.9269266 1.4463534
10.339831 -8.926837 1.423087
10.387382 -8.9237957 1.4316627
10.444651 -8.9248943 1.4235313
10.491701 -8.9291706 1.4313616
10.536608 -8.9363852 1.4268918
12.135065 -9.0501146 1.4155129
12.204947 -9.0506144 1.428293
10.332315 -8.8836765 1.4239516
10.379449 -8.8837204 1.4154229
10.438978 -8.886651 1.4177842
10.495603 -8.8832436 1.4212369
10.532029 -8.8937464 1.4318229
10.356722 -8.8433237 1.4084636
10.39251 -8.8385658 1.4187218
10.445094 -8.8380518 1.4191513
10.497861 -8.8349314 1.4200648
10.539399 -8.8376846 1.4277688
10.574794 -8.8331318 1.4350064
10.358387 -8.7668476 1.4160448
10.39435 -8.7670135 1.410516
10.45401 -8.7682486 1.4139241
10.500872 -8.7803774 1.4156283
10.542693 -8.7904348 1.4267579
10.588628 -8.7820845 1.4285797
10.411691 -8.748189 1.4036125
10.456812 -8.7505379 1.4076283
10.511713 -8.7452755 1.4196987
10.551476 -8.7457457 1.4285333
10.415864 -8.686676 1.4049194
10.46393 -8.684144 1.4076695
10.508391 -8.6827393 1.420963
10.550396 -8.6917591 1.4233276
10.59129 -8.6880388 1.4332187
12.158018 -11.030096 1.4806103
12.210317 -11.035635 1.4776272
12.272894 -11.035878 1.479508
12.292536 -11.026766 1.4930798
12.212399 -11.014779 1.4800513
12.273611 -10.985135 1.4692445
12.310293 -10.985667 1.481403
12.35789 -10.983972 1.4771551
12.236947 -10.959427 1.4745393
12.274664 -10.964046 1.4768449
12.320621 -10.947067 1.4784133
12.371909 -10.947288 1.4756738
12.397983 -10.93981 1.5021836
12.33622 -10.913865 1.4740043
12.366815 -10.915431 1.4772702
12.414784 -10.905068 1.4828901
12.389156 -10.849427 1.4779381
12.42321 -10.853621 1.4776917
12.452998 -10.841191 1.496285
12.398978 -10.822268 1.4645729
12.426847 -10.811489 1.4795463
12.46632 -10.800282 1.4795235
12.432891 -10.756481 1.476586
12.472726 -10.759169 1.4774905
12.449215 -10.704386 1.4785358
12.480813 -10.706707 1.4764805
12.440286 -10.644679 1.4761089
12.481054 -10.659936 1.4800621
12.453082 -10.609591 1.4733369
12.478904 -10.60489 1.4804356
12.41563 -10.545293 1.4614054
12.44328 -10.553654 1.4747037
12.478315 -10.55681 1.4853705
12.371642 -10.486704 1.4668126
12.407468 -10.504985 1.4754623
12.446033 -10.50843 1.4791399
12.35212 -10.434508 1.4790686
12.405228 -10.457699 1.4762762
12.429959 -10.467148 1.4848213
12.258034 -10.405659 1.4791723
12.321383 -10.384712 1.4634799
12.34936 -10.401236 1.4787812
12.384399 -10.410227 1.4816275
12.151755 -10.351187 1.473815
12.2065 -10.336103 1.4756067
12.253706 -10.330381 1.4788924
12.307503 -10.354832 1.4755843
12.338116 -10.370177 1.4846667
12.242017 -10.318885 1.4898883
12.15819 -9.7369204 1.4787258
12.201846 -9.7318335 1.4740647
12.243581 -9.7487059 1.4809459
12.13684 -9.6909895 1.4785256
12.217366 -9.7101688 1.481155
12.242514 -9.684432 1.47886
12.291898 -9.6798105 1.4713284
12.324339 -9.6774321 1.4841142
12.260378 -9.6497765 1.4732972
12.295623 -9.6501579 1.4802673
12.342581 -9.6585493 1.4798179
12.320859 -9.6134329 1.4705299
12.342371 -9.5995512 1.4780052
12.390685 -9.5933037 1.4780509
12.371183 -9.546093 1.4719285
12.391365 -9.543149 1.4819244
12.375393 -9.5128584 1.4667902
12.404894 -9.5003738 1.4780154
12.437037 -9.482502 1.4918392
12.382534 -9.4400425 1.4755025
12.411883 -9.454442 1.4774591
12.379 -9.41008 1.472726
12.418796 -9.4070053 1.4752525
12.440558 -9.4124861 1.4954075
12.379843 -9.3454313 1.472265
12.412736 -9.3533192 1.477463
12.45931 -9.3555164 1.4749551
12.341373 -9.2864265 1.4714959
12.378837 -9.294302 1.473848
12.407584 -9.3058481 1.4788302
12.451736 -9.2944241 1.4846865
10.531391 -9.1150188 1.4604888
12.375601 -9.2481451 1.4770322
12.407515 -9.2603712 1.4836485
10.29147 -9.0642548 1.4591411
10.325339 -9.0672016 1.4636954
10.384192 -9.0611382 1.4692928
10.440218 -9.0667868 1.4595245
10.512252 -9.0874882 1.4753699
12.28857 -9.200738 1.473966
12.329688 -9.1920547 1.4785343
12.359127 -9.2140741 1.4788401
12.407701 -9.2099447 1.4836766
10.295283 -9.0297813 1.46329
10.336718 -9.0376015 1.4594434
10.370012 -9.0375195 1.4658862
10.439474 -9.0422497 1.4641569
10.486841 -9.0394869 1.4660248
10.520008 -9.0302076 1.4757776
12.181598 -9.1314611 1.4755361
12.23624 -9.1300116 1.4722022
12.28357 -9.1354094 1.4780128
12.319565 -9.1510153 1.4793836
10.330584 -8.9944725 1.4606949
10.375522 -8.9884253 1.4664527
10.494875 -8.9843702 1.4736966
10.540292 -8.979207 1.4707273
12.092471 -9.0912256 1.4761308
12.134411 -9.0815725 1.4722241
12.183555 -9.1032782 1.4846742
12.231301 -9.095274 1.4773809
12.290654 -9.1208353 1.5002816
10.358426 -8.9292593 1.4550885
10.369059 -8.9093447 1.4587655
10.536786 -8.9434662 1.4698931
12.208241 -9.0434866 1.4741728
12.21269 -9.0398054 1.499624
10.545424 -8.8923893 1.4648963
10.547645 -8.8321848 1.4668907
10.582108 -8.8307552 1.4614924
10.582901 -8.7798853 1.4590638
10.543304 -8.7555971 1.4652514
10.584125 -8.7455959 1.4597386
10.572189 -8.672122 1.4599053
10.582968 -8.6702499 1.4805102
10.586895 -8.6640081 1.4856516
12.168669 -11.035769 1.5218273
12.222315 -11.030951 1.5206302
12.261082 -11.032613 1.5357512
12.295806 -11.032407 1.5268118
12.181891 -11.014997 1.5299648
12.222437 -11.011305 1.5295464
12.278799 -10.983566 1.5248291
12.311981 -10.99126 1.5332383
12.364906 -10.981808 1.5339533
12.266885 -10.951906 1.5235585
12.324962 -10.951649 1.5283045
12.375018 -10.94538 1.5279982
12.409314 -10.938637 1.5322726
12.370943 -10.910732 1.5292473
12.42019 -10.909132 1.5326018
12.452837 -10.894363 1.5410064
12.397962 -10.833512 1.5133569
12.42825 -10.855474 1.5264834
12.456117 -10.85212 1.5297285
12.431882 -10.811367 1.5280864
12.469793 -10.803608 1.5285965
12.449016 -10.75641 1.5221573
12.485193 -10.762424 1.5270429
12.455046 -10.718569 1.5133797
12.488053 -10.707907 1.5301623
12.513196 -10.694045 1.5434732
12.447278 -10.645968 1.5269655
12.493704 -10.658828 1.5265735
12.513915 -10.645573 1.5406772
12.4606 -10.614025 1.5205829
12.492737 -10.607626 1.5312115
12.444835 -10.553706 1.5278909
12.489964 -10.554255 1.5270824
12.389607 -10.489332 1.5258328
12.452682 -10.501415 1.5250747
12.476455 -10.524102 1.5414324
12.358274 -10.429626 1.5132359
12.409815 -10.447483 1.5244517
12.437935 -10.46194 1.5318687
12.265482 -10.383627 1.5233001
12.287422 -10.412148 1.5344537
12.356096 -10.397849 1.5285989
12.394041 -10.40723 1.53091
10.621555 -10.24114 1.545159
10.644982 -10.252476 1.548317
12.160925 -10.354043 1.5237176
12.200798 -10.348946 1.5257179
12.250657 -10.327444 1.5300373
12.315744 -10.345339 1.5265895
12.348957 -10.367753 1.5343398
10.587279 -10.190172 1.5476816
12.203856 -10.317565 1.5297511
12.249471 -10.316886 1.5262043
10.578515 -10.123621 1.533792
10.610009 -10.129066 1.5411685
10.601902 -10.105123 1.5366929
10.580862 -10.054547 1.5273125
10.610127 -10.055049 1.5371597
10.597134 -9.9977312 1.532488
10.607827 -9.9940557 1.5369667
10.582603 -9.9496603 1.5217785
10.592328 -9.8861189 1.5299531
10.608596 -9.8726559 1.5369688
10.595051 -9.8539419 1.5511292
10.613203 -9.8674831 1.5519807
12.190145 -9.7268705 1.5261257
12.242534 -9.7486134 1.5291228
12.162046 -9.6868553 1.5196314
12.192625 -9.700573 1.5422341
12.245679 -9.6994925 1.5265089
12.301609 -9.681715 1.523886
12.333816 -9.6800928 1.5233899
12.25813 -9.6660433 1.5274743
12.301933 -9.6544247 1.5259902
12.342758 -9.6503296 1.5317584
12.323148 -9.620677 1.5071075
12.355877 -9.596756 1.5271865
12.399533 -9.596386 1.5281208
12.398923 -9.5441875 1.5289197
12.378199 -9.5237799 1.5029755
12.409079 -9.504035 1.5257456
12.442967 -9.5037355 1.5323269
12.419008 -9.4517126 1.523789
12.441974 -9.4505882 1.5328865
12.384498 -9.4215651 1.5025142
12.418979 -9.4053221 1.5231311
12.446988 -9.4057016 1.5316828
12.386407 -9.337369 1.5226291
12.423196 -9.3510571 1.5253694
12.460358 -9.3512335 1.5344923
12.376171 -9.288662 1.5264498
12.419086 -9.3040771 1.5273693
12.467534 -9.2859354 1.529094
12.386534 -9.2471905 1.5235517
12.410288 -9.2556105 1.5325533
12.296052 -9.2119923 1.5225018
12.327683 -9.192112 1.5287308
12.373627 -9.2037163 1.5277303
12.416643 -9.1988029 1.5342988
12.195447 -9.135148 1.5207665
12.216482 -9.1283503 1.5332117
12.289711 -9.1369553 1.5244051
12.325056 -9.1454926 1.5318635
12.360067 -9.1729021 1.5474039
12.139457 -9.0854254 1.5205681
12.187616 -9.0926952 1.5271631
12.239018 -9.0953903 1.5307109
12.298613 -9.1162262 1.5327139
12.333883 -9.1205235 1.5303812
12.217183 -9.0346003 1.5337976
12.181851 -11.040029 1.5562501
12.223358 -11.023254 1.5789274
12.258611 -11.030231 1.5778328
12.30117 -11.035613 1.5808289
12.204693 -11.008423 1.5822194
12.261335 -11.010843 1.5833848
12.316217 -10.993087 1.5775249
12.357053 -10.981453 1.5819982
12.276473 -10.95086 1.5714873
12.3201 -10.955198 1.5822328
12.365395 -10.952016 1.5731478
12.407265 -10.946223 1.5836043
12.381743 -10.909385 1.5788155
12.424119 -10.908988 1.58102
12.459953 -10.893121 1.5751284
12.436096 -10.855832 1.5735463
12.464372 -10.851418 1.5787338
12.431477 -10.816394 1.5777003
12.477245 -10.801761 1.5764937
12.507103 -10.801044 1.6032945
12.488715 -10.75878 1.5751723
12.51094 -10.768685 1.5862608
12.484806 -10.707065 1.5745329
12.517916 -10.715033 1.5785054
12.492504 -10.661582 1.5766644
12.519855 -10.667171 1.5808001
12.495836 -10.607787 1.5749133
12.521587 -10.617541 1.5870919
12.456431 -10.54564 1.5773722
12.497643 -10.560448 1.5791318
12.519855 -10.556366 1.596791
12.407676 -10.49048 1.5707374
12.446586 -10.499455 1.5758289
12.485594 -10.512614 1.5800698
12.413674 -10.457908 1.569922
12.449564 -10.460572 1.5793644
12.479006 -10.463379 1.5912114
10.617508 -10.295998 1.5861881
12.302506 -10.405794 1.5800552
12.357317 -10.397019 1.5768156
12.402725 -10.407804 1.5798755
12.436006 -10.431147 1.5814855
10.58143 -10.239233 1.583755
10.6254 -10.239944 1.5810319
10.644803 -10.246815 1.5823869
12.165444 -10.333404 1.588425
12.206072 -10.357926 1.5738064
12.243239 -10.337667 1.5849159
12.306317 -10.329319 1.573884
12.353332 -10.357894 1.575488
12.385728 -10.375246 1.5887721
10.617861 -10.194275 1.5842472
12.218898 -10.316805 1.5781233
12.258234 -10.31436 1.5763897
12.340137 -10.32548 1.5879836
10.570142 -10.138649 1.5939384
10.61236 -10.125221 1.5755136
10.642746 -10.170434 1.5848675
10.56644 -10.087106 1.5875951
10.611119 -10.10275 1.5727592
10.612432 -10.044472 1.5777123
10.580578 -9.9682255 1.5660322
10.604591 -9.9931946 1.5604379
10.54864 -9.9193707 1.5932366
10.592053 -9.9451895 1.5901785
10.615629 -9.9429417 1.5842644
10.59322 -9.890439 1.5730407
10.61652 -9.8875027 1.5756822
10.60047 -9.8525333 1.5755877
10.612152 -9.8492479 1.5847123
12.205428 -9.7259302 1.5800314
12.252003 -9.7411213 1.5703716
12.271838 -9.7644234 1.5923177
12.201217 -9.6923752 1.5725142
12.246305 -9.7076597 1.5785403
12.30074 -9.6838455 1.5756855
12.335973 -9.6830292 1.5820751
12.26815 -9.6610947 1.5646259
12.306022 -9.6501255 1.5739259
12.346277 -9.6525946 1.5769114
12.37697 -9.654439 1.5968454
12.364905 -9.5999346 1.5704108
12.390635 -9.5965357 1.5822102
12.433433 -9.586957 1.5753058
12.375555 -9.5742893 1.5628287
12.411305 -9.5491896 1.5750471
12.443673 -9.542592 1.5944607
12.420277 -9.507637 1.5723007
12.445271 -9.497261 1.5807104
12.423839 -9.4476023 1.5708219
12.449533 -9.4562387 1.579187
12.423265 -9.4078484 1.578071
12.457807 -9.4029522 1.5780089
12.423881 -9.3442678 1.5737189
12.454611 -9.354907 1.580844
12.496603 -9.3356705 1.5786813
12.386051 -9.2858839 1.5761504
12.426729 -9.2972574 1.5758315
12.451374 -9.3167562 1.5833127
12.501766 -9.3324833 1.5942719
12.386374 -9.2352924 1.5734352
12.417897 -9.2500315 1.5787376
12.482562 -9.2766619 1.5749693
12.332356 -9.1920605 1.5741171
12.379411 -9.2003584 1.5789952
12.414935 -9.2053556 1.5785673
12.226381 -9.1316023 1.5819675
12.29619 -9.1344233 1.5691662
12.328952 -9.1431055 1.5769398
12.364778 -9.1532555 1.5861528
12.151236 -9.0862312 1.5615088
12.177234 -9.0873575 1.5814409
12.230135 -9.096241 1.5738297
12.268445 -9.103673 1.581057
12.322872 -9.1119709 1.5885618
12.231483 -9.0493689 1.579041
12.219714 -11.034778 1.6492225
12.270761 -11.027652 1.631081
12.3137 -11.033587 1.6267991
12.228637 -11.003625 1.6254356
12.266012 -11.011406 1.62752
12.31051 -11.008933 1.6314814
12.358226 -10.999447 1.6316642
12.325354 -10.956 1.6241406
12.359347 -10.957816 1.6308738
12.416946 -10.953209 1.6294757
12.387009 -10.91177 1.6231154
12.415475 -10.905346 1.6294669
12.460328 -10.898662 1.6251717
12.437117 -10.870851 1.6245588
12.471236 -10.853667 1.6278412
12.444127 -10.81521 1.6195155
12.480577 -10.809491 1.6292688
12.512645 -10.809807 1.6347711
12.485915 -10.755131 1.6312662
12.518687 -10.763803 1.630368
12.489119 -10.715682 1.62833
12.530075 -10.713283 1.6272823
12.494067 -10.658836 1.6223218
12.532168 -10.667635 1.6291609
12.492188 -10.608777 1.6272761
12.529916 -10.611409 1.6290927
12.468294 -10.543564 1.6136205
12.493426 -10.551799 1.627527
12.526995 -10.559911 1.6326039
12.45321 -10.506925 1.6267078
12.502756 -10.513676 1.6266335
12.520123 -10.534494 1.6447777
12.415405 -10.448334 1.6292405
12.456078 -10.454547 1.6240704
12.485389 -10.471049 1.6335527
10.622554 -10.287468 1.6209353
12.308681 -10.383694 1.6274648
12.356579 -10.406128 1.6284976
12.403623 -10.401538 1.6249362
12.441291 -10.415715 1.63554
10.608355 -10.23418 1.6120181
10.63631 -10.253201 1.6159425
12.176778 -10.332643 1.6108311
12.205237 -10.345666 1.6297063
12.245029 -10.353743 1.6373868
12.313176 -10.327229 1.6289692
12.362417 -10.354136 1.6278174
12.396131 -10.37052 1.6324352
10.625998 -10.195197 1.619505
12.259054 -10.316261 1.6282542
12.294037 -10.312451 1.6334164
12.348701 -10.324084 1.6206751
10.608547 -10.139791 1.6173881
10.58214 -10.095538 1.617679
10.595428 -10.083194 1.628392
10.578815 -10.039252 1.6224586
10.607351 -10.044777 1.6209108
10.592637 -9.9458189 1.6259792
10.60465 -9.9534883 1.6185143
10.58322 -9.8897896 1.6231406
10.612822 -9.8950853 1.6144224
10.596449 -9.8547421 1.6138003
10.623377 -9.8495474 1.6099648
12.245508 -9.7282047 1.6161536
12.277611 -9.7428503 1.635933
12.166945 -9.6874142 1.6074626
12.199218 -9.681428 1.6264929
12.245264 -9.7061701 1.6246246
12.299461 -9.6867237 1.629313
12.345449 -9.6829529 1.6300526
12.306099 -9.6547947 1.6257519
12.351449 -9.6479511 1.6275905
12.384199 -9.6596212 1.6310347
12.357098 -9.6126909 1.6185721
12.395186 -9.595932 1.625327
12.440167 -9.6052055 1.6324201
12.414053 -9.5557585 1.6273068
12.444776 -9.5471516 1.6297268
12.426744 -9.5086069 1.6143835
12.44742 -9.5059748 1.6290255
12.489834 -9.4875126 1.6411134
12.436334 -9.4403162 1.6125143
12.461981 -9.4576988 1.6281345
12.485961 -9.4522352 1.6417307
12.433866 -9.3993444 1.6195045
12.466208 -9.4035406 1.6273607
12.492364 -9.4044189 1.6409506
12.420539 -9.3352623 1.6205921
12.464768 -9.3526192 1.6270251
12.429895 -9.2974844 1.6266365
12.459703 -9.3065004 1.629091
12.507525 -9.3247442 1.6272068
12.394711 -9.2484236 1.6138166
12.427977 -9.2477865 1.6277547
12.467029 -9.2563038 1.6322098
12.33264 -9.1903362 1.6226215
12.375733 -9.1926126 1.6264794
12.415525 -9.2087221 1.6300983
12.238733 -9.1319466 1.6240823
12.26528 -9.1277046 1.6335377
12.335386 -9.1408892 1.6234145
12.37218 -9.1556644 1.6306044
12.445292 -9.1768427 1.638527
12.185506 -9.0825405 1.6277319
12.223665 -9.0988464 1.6263279
12.272029 -9.0998812 1.6269625
12.329624 -9.1123981 1.6282781
12.380279 -9.1239042 1.632774
12.235894 -9.0632315 1.624429
12.230443 -11.033405 1.6730701
12.270668 -11.028605 1.687839
12.327514 -11.031982 1.6793172
12.255244 -11.003707 1.6785866
12.305365 -11.006968 1.6783991
12.363029 -11.01698 1.6797196
12.32711 -10.941574 1.6760005
12.369429 -10.959547 1.6732308
12.422397 -10.95715 1.6801876
12.446374 -10.952526 1.6798545
12.36545 -10.925719 1.6866202
12.426472 -10.901309 1.6762006
12.468257 -10.904983 1.6781176
12.501961 -10.887995 1.6937056
12.431209 -10.88158 1.6910695
12.479927 -10.858885 1.6771128
12.504604 -10.853145 1.6833861
12.450021 -10.820142 1.657849
12.481766 -10.810856 1.6759121
12.514962 -10.810822 1.6846205
12.497745 -10.763699 1.6701646
12.532194 -10.76182 1.679989
12.555654 -10.773392 1.7015992
12.499903 -10.723161 1.6660879
12.537609 -10.715276 1.6772667
12.571864 -10.715948 1.6876639
12.542679 -10.669267 1.676909
12.572278 -10.675015 1.6861951
12.504706 -10.613614 1.6696795
12.543202 -10.613993 1.6759624
12.57694 -10.618382 1.6872102
12.505609 -10.555291 1.6787115
12.540641 -10.562675 1.679978
12.58719 -10.590262 1.7020261
12.45686 -10.496927 1.6768186
12.501028 -10.509363 1.6755155
12.530524 -10.526731 1.6776006
12.424095 -10.442129 1.6636646
12.460501 -10.44857 1.6721698
12.493732 -10.461336 1.68244
12.323707 -10.384178 1.6665436
12.348931 -10.41459 1.6802019
12.398282 -10.397976 1.6760648
12.453151 -10.414798 1.6805853
12.479273 -10.43259 1.6919448
12.216133 -10.329844 1.6808809
12.257066 -10.355206 1.6810038
12.322972 -10.325281 1.6628178
12.370626 -10.347415 1.6831958
12.409466 -10.368005 1.676843
12.433037 -10.372736 1.6960435
12.269766 -10.314072 1.6766298
12.309915 -10.313347 1.6859421
12.354428 -10.322283 1.6784534
12.292512 -9.7477427 1.6767718
12.214581 -9.6832285 1.6643007
12.247679 -9.7029018 1.6754035
12.291386 -9.7060223 1.6754556
12.350889 -9.6848984 1.6754962
12.25407 -9.6673298 1.680604
12.319861 -9.6511412 1.6653352
12.350044 -9.6508932 1.6786023
12.385569 -9.6475649 1.6810681
12.44225 -9.6323471 1.6863238
12.363464 -9.611002 1.6686466
12.405077 -9.5953379 1.6771736
12.449228 -9.5989199 1.6758689
12.420254 -9.5576582 1.6731839
12.44751 -9.5510569 1.679034
12.483663 -9.538434 1.6918142
12.458357 -9.5057917 1.6775215
12.498796 -9.4875736 1.6837722
12.470238 -9.4572058 1.6764511
12.494042 -9.4542112 1.6858318
12.467587 -9.4052324 1.6762543
12.497392 -9.4061747 1.683744
12.476803 -9.3572741 1.6746442
12.502678 -9.366785 1.6831287
12.433454 -9.3056536 1.6746874
12.469735 -9.3020439 1.6773014
12.523221 -9.3130732 1.6818708
12.429189 -9.2463636 1.6733691
12.458012 -9.2485857 1.6828279
12.504747 -9.2538605 1.6745627
12.328038 -9.1982622 1.6782074
12.383337 -9.1934977 1.6722792
12.424511 -9.2046013 1.6774255
12.450005 -9.2275 1.7006429
12.248922 -9.1319275 1.6667
12.273911 -9.128974 1.6783038
12.339371 -9.1489296 1.6762285
12.3785 -9.1512461 1.6764537
12.42224 -9.1714325 1.6819794
12.455859 -9.1623907 1.6994289
12.19769 -9.0780582 1.6687632
12.226513 -9.0922108 1.6826689
12.286661 -9.0988817 1.6751558
12.334597 -9.106472 1.6684606
12.373475 -9.1198988 1.6843086
12.247109 -9.0593643 1.6781985
12.222322 -11.034818 1.737875
12.25661 -11.030235 1.7273852
12.312703 -11.027739 1.7307025
12.3478 -11.030124 1.734603
12.275396 -11.002192 1.7270317
12.324363 -11.001558 1.7232065
12.36333 -11.008016 1.7372092
12.338349 -10.938146 1.7097962
12.373635 -10.952024 1.7280966
12.416152 -10.962739 1.7304262
12.450547 -10.963217 1.7380687
12.383268 -10.918268 1.7334075
12.432304 -10.907929 1.7250544
12.46731 -10.908809 1.7294056
12.440555 -10.877305 1.7191961
12.479207 -10.867199 1.7288853
12.515695 -10.862971 1.730038
12.491959 -10.810009 1.7234275
12.52497 -10.81479 1.7293376
12.555773 -10.795061 1.7469072
12.49745 -10.776709 1.7158917
12.534969 -10.765632 1.7286018
12.561223 -10.766455 1.7332284
12.5453 -10.725413 1.7208537
12.574916 -10.711906 1.7315346
12.549831 -10.666223 1.7224213
12.5783 -10.671483 1.730476
12.615911 -10.67615 1.7424109
12.545604 -10.608633 1.7188811
12.586745 -10.618171 1.7301637
12.51256 -10.553123 1.714316
12.543913 -10.559498 1.7280835
12.590087 -10.580858 1.7373693
12.467402 -10.495113 1.7142948
12.494502 -10.50496 1.7275712
12.53955 -10.515203 1.7281313
12.438702 -10.433518 1.7123988
12.502691 -10.455918 1.7285093
12.529907 -10.480889 1.7372591
12.360129 -10.397509 1.7216996
12.403465 -10.394401 1.7274414
12.456739 -10.408297 1.728196
12.483758 -10.42635 1.7310925
12.229499 -10.329426 1.7130153
12.255791 -10.348469 1.7313024
12.288778 -10.348065 1.7289574
12.37685 -10.335135 1.7139937
12.404256 -10.352865 1.729627
12.440404 -10.371754 1.7272998
12.280313 -10.312608 1.7155057
12.306829 -10.309878 1.7286189
12.360518 -10.320498 1.7267879
12.30608 -9.7498455 1.7240247
12.260095 -9.6904411 1.7205609
12.291059 -9.7048912 1.7305276
12.347103 -9.6887255 1.7247206
12.373547 -9.6994114 1.7374053
12.270214 -9.6634817 1.7092079
12.282567 -9.6603937 1.7313721
12.35968 -9.6492872 1.7280213
12.398203 -9.6532192 1.7252644
12.449371 -9.6358128 1.7217534
12.407437 -9.6045532 1.7297097
12.44348 -9.5897532 1.7271194
12.478435 -9.5950546 1.7380801
12.421542 -9.5730467 1.7250711
12.457886 -9.5527487 1.7262684
12.489915 -9.5489817 1.7347312
12.467835 -9.5070782 1.7229284
12.497603 -9.497304 1.7364141
12.475436 -9.4607639 1.7231793
12.500409 -9.4591303 1.7293025
12.543594 -9.4569225 1.7477442
12.47891 -9.4052534 1.7180109
12.512062 -9.4107332 1.7314503
12.549746 -9.4235907 1.7472026
12.47849 -9.3558655 1.7196183
12.51306 -9.363553 1.726318
12.552753 -9.3639603 1.7370512
12.438049 -9.2964058 1.72136
12.477216 -9.2987328 1.7231368
12.512338 -9.3212919 1.7304087
12.552135 -9.3074465 1.7320615
12.430365 -9.2666378 1.7312008
12.469439 -9.2474203 1.7272257
12.515978 -9.2534513 1.7261833
12.338627 -9.1953707 1.7113585
12.379324 -9.1912508 1.7241694
12.428254 -9.1998329 1.7248075
12.459572 -9.2182341 1.735427
12.280778 -9.1299553 1.7252492
12.343539 -9.1688614 1.7241648
12.388267 -9.1488028 1.725913
12.418471 -9.1609392 1.7313102
12.461876 -9.1560163 1.7267129
12.20355 -9.0686359 1.7133255
12.236001 -9.0840731 1.7285045
12.286724 -9.0963869 1.7261407
12.327222 -9.1009865 1.7249988
12.376098 -9.1175432 1.7258385
12.407477 -9.108675 1.7432724
12.256284 -9.0560169 1.7241075
12.286981 -9.062727 1.7360349
12.311273 -9.069829 1.7425258
12.224806 -11.025298 1.7778754
12.263288 -11.030948 1.7745026
12.346509 -11.030406 1.7799901
12.284622 -11.012858 1.7545007
12.311011 -11.000283 1.7770009
12.361728 -11.005891 1.7813994
12.396417 -11.011777 1.7799587
12.385341 -10.94617 1.7716269
12.41611 -10.960751 1.7824574
12.458346 -10.960375 1.7823429
12.423636 -10.906516 1.7738501
12.469245 -10.911978 1.7778392
12.504092 -10.900969 1.7819326
12.475114 -10.870619 1.7792445
12.52211 -10.864577 1.7774105
12.489434 -10.805343 1.7705262
12.527988 -10.811239 1.77762
12.562352 -10.804843 1.7853824
12.533385 -10.766908 1.7782397
12.567982 -10.763975 1.7780766
12.547145 -10.720644 1.7763975
12.577477 -10.719244 1.7748239
12.611306 -10.712173 1.7912737
12.558959 -10.664768 1.7615938
12.587912 -10.669756 1.7782508
12.620401 -10.677924 1.7792403
12.536475 -10.60073 1.776831
12.596457 -10.623356 1.7780663
12.621188 -10.621198 1.774865
12.546851 -10.562765 1.7707788
12.586715 -10.567777 1.7798753
12.62082 -10.592188 1.773626
12.500292 -10.501301 1.7790014
12.550644 -10.515543 1.7798282
12.573702 -10.531042 1.7924575
12.511797 -10.451644 1.773538
12.535357 -10.46219 1.7857292
12.371891 -10.383838 1.7641565
12.399854 -10.400593 1.7789465
12.460304 -10.403566 1.7743438
12.495633 -10.421487 1.7798033
12.258867 -10.328263 1.7757628
12.298135 -10.354435 1.7765294
12.41521 -10.35038 1.7780068
12.448802 -10.367493 1.7755959
12.478962 -10.382932 1.7881558
12.307805 -10.310577 1.7699853
12.351983 -10.313148 1.7803823
12.390849 -10.31741 1.7772944
12.311817 -9.7695093 1.780416
12.329388 -9.7287207 1.7732874
12.296861 -9.7007904 1.773536
12.340627 -9.696496 1.775678
12.379274 -9.6996346 1.7788604
12.304332 -9.658742 1.7797345
12.366817 -9.640379 1.7697421
12.396194 -9.6494389 1.7760018
12.44243 -9.653265 1.7756706
12.414513 -9.6082001 1.7736883
12.437149 -9.5964727 1.7824247
12.489133 -9.5966835 1.7714229
12.464715 -9.5631428 1.7751907
12.492743 -9.5539188 1.7775671
12.470991 -9.5199699 1.7757342
12.500281 -9.5005293 1.7760479
12.550713 -9.489439 1.7777842
12.508751 -9.4622536 1.7780557
12.564598 -9.4655199 1.7803071
12.524958 -9.4130087 1.774263
12.547107 -9.4142809 1.7871114
12.482226 -9.3579006 1.7717267
12.514669 -9.3603582 1.774729
12.556886 -9.3659105 1.7781307
12.478836 -9.3017988 1.7721982
12.511314 -9.307476 1.7779875
12.557706 -9.3128319 1.7789634
12.596497 -9.2935171 1.7942314
12.436811 -9.2635384 1.7820073
12.480818 -9.25208 1.7743502
12.508272 -9.2621794 1.7761647
12.378042 -9.1873178 1.7708294
12.429783 -9.1998434 1.7748365
12.46935 -9.2077055 1.777949
12.541668 -9.2309504 1.7794744
12.291018 -9.1290722 1.7700754
12.316649 -9.1301384 1.7811519
12.38474 -9.1540613 1.7740546
12.424094 -9.1590672 1.7793351
12.470475 -9.1541948 1.7795613
12.243098 -9.0751286 1.769372
12.281575 -9.0934191 1.7784497
12.331225 -9.0979137 1.7774383
12.383431 -9.1175413 1.7788171
12.420183 -9.1151352 1.775637
12.223901 -9.0653057 1.7842141
12.274649 -9.0524635 1.7734029
12.320912 -9.0673141 1.7778827
12.272296 -11.031204 1.8207811
12.291368 -11.025437 1.8093414
12.355664 -11.030152 1.8293933
12.254924 -11.018537 1.8273475
12.319078 -11.009863 1.8263587
12.376613 -11.000048 1.8237048
12.408645 -11.012812 1.8356082
12.336691 -10.975932 1.8341172
12.35512 -10.976117 1.8363268
12.421227 -10.956543 1.8299193
12.46469 -10.959569 1.8301686
12.392119 -10.928392 1.8133848
